ply
            format ascii 1.0
            element vertex 7808
            property float x
            property float y
            property float z
            property uchar blue
            property uchar green
            property uchar red
            end_header
193.104875 302.961135 2910.842705 99 135 163
197.626114 401.285219 2897.508240 75 111 141
183.744884 384.357381 2910.414696 33 51 80
206.464815 446.811295 2888.764191 92 111 117
227.288985 99.744236 2911.598587 30 45 80
256.186652 121.059346 2888.994408 37 49 81
248.032856 178.469014 2889.636230 74 110 144
249.667215 143.601215 2893.265152 33 52 81
281.182599 -534.578562 2939.416122 153 207 228
267.745304 -455.425549 2945.115280 50 153 191
278.527880 -461.765146 2936.958122 212 234 239
262.022138 -8.994460 2902.772141 75 107 135
160.108709 660.859632 2910.775566 77 107 138
160.108709 660.859632 2910.775566 77 107 138
154.122591 684.794760 2916.388702 74 104 130
154.122591 684.794760 2916.388702 74 104 130
257.513070 89.621007 2901.619911 161 196 211
257.513070 89.621007 2901.619911 161 196 211
203.366542 404.769135 2910.765076 93 126 156
222.448134 364.550352 2900.923729 34 53 82
206.283736 -664.033890 3021.801758 187 229 246
218.166566 431.030512 2898.496819 36 59 91
211.917758 350.318503 2912.450790 88 121 154
301.642632 -528.971815 2938.258362 165 216 234
216.664004 624.591637 2888.508987 82 121 143
216.664004 624.591637 2888.508987 82 121 143
269.109964 0.643745 2913.599777 42 35 66
749.229670 659.350586 2484.477234 94 179 214
175.323021 660.439682 2921.998787 76 104 135
275.832486 -599.523354 2976.683617 128 190 213
181.600416 574.668741 2927.808189 109 121 139
267.130136 -460.120678 2974.728394 247 249 253
253.547764 -386.831880 2985.427284 209 198 212
246.099615 421.451092 2909.468651 73 109 138
246.099615 421.451092 2909.468651 73 109 138
183.343852 693.311262 2929.524994 80 109 137
191.859317 512.130213 2942.413712 73 105 144
248.804402 462.006760 2907.226181 33 50 76
248.804402 462.006760 2907.226181 33 50 76
245.347691 410.524368 2920.001221 79 112 143
177.927542 519.786215 2962.739563 25 52 87
200.409412 544.432068 2948.825455 91 122 152
227.187037 632.163572 2920.738220 41 65 91
212.057376 503.071022 2947.758865 32 64 96
308.955383 -298.786449 2957.664871 160 194 206
214.130735 509.812832 2949.867630 81 117 149
214.241171 -698.393917 3075.214386 239 235 242
212.083459 524.362326 2950.651360 26 55 90
191.832554 -723.866272 3096.034813 202 208 232
312.491083 -144.401062 2943.546677 65 77 115
312.491083 -144.401062 2943.546677 65 77 115
212.496996 531.663561 2951.186752 89 118 147
298.313713 343.392539 2906.247711 73 97 119
196.254921 -735.880423 3099.934006 198 186 212
217.301989 513.990545 2957.852554 28 57 93
233.583760 530.893517 2947.719765 35 63 96
320.684147 174.464262 2920.444870 113 140 156
309.084344 -568.379736 3007.170868 63 170 202
176.296973 -762.787294 3134.613419 222 206 225
334.314513 117.031467 2922.422028 44 62 93
331.057715 226.499796 2914.443398 76 112 143
324.450183 -260.695362 2972.136116 42 49 86
328.060102 -123.956442 2956.750298 100 146 168
343.259907 -94.926912 2946.963501 88 126 154
352.485371 232.519007 2906.016159 29 50 81
439.348221 478.706741 2808.541107 35 63 96
330.442619 -191.867089 2971.826363 181 212 216
288.819933 -592.916870 3048.758888 176 219 227
385.477591 205.993867 2892.433167 40 62 97
332.947135 -1.317852 2957.720947 43 60 89
795.180845 698.247576 2525.337601 30 107 147
334.646034 -173.255527 2977.149773 156 198 205
220.771122 -710.603619 3125.482559 124 104 149
24.453212 -1145.156002 3329.990768 31 40 53
816.883945 660.941935 2518.374634 83 158 184
329.093981 -94.821298 2982.679367 39 60 103
183.278596 -696.831274 3161.732864 234 218 224
338.282704 46.372914 2966.184425 45 60 92
344.953942 66.154373 2960.651779 69 104 137
383.143616 557.226372 2870.574760 43 64 97
184.070289 -838.457298 3185.193825 250 241 251
596.909380 1011.723232 2672.521591 185 179 174
439.834499 488.438940 2844.407654 91 124 172
349.880338 97.559947 2962.094688 43 71 110
386.365342 152.107668 2931.796837 46 70 105
281.316519 -532.970953 3085.419273 35 145 174
358.029842 -268.569088 2998.423386 27 47 79
364.948297 -7.451039 2966.869354 69 106 132
357.211661 9.794319 2971.527863 92 128 154
358.676672 -122.178531 2988.850403 96 131 150
255.835295 -661.121368 3128.706360 65 73 137
254.989457 -691.287136 3136.096001 162 155 197
375.709510 39.614478 2970.834923 55 88 127
363.714314 27.548730 2982.061195 29 58 86
850.804138 690.270901 2533.425140 100 157 180
217.899227 -291.778564 3148.025131 145 193 199
256.393743 -719.638872 3161.406326 222 206 220
385.331964 -66.892630 2996.302795 135 166 176
284.981084 -623.204756 3136.557007 21 106 109
885.555077 642.339039 2522.323608 24 116 163
389.222288 -5.754303 2990.783882 160 188 197
374.377751 19.199854 3001.060867 28 52 84
878.395176 646.342897 2528.562355 24 116 163
613.080788 125.803745 2804.372025 114 157 204
736.188555 1104.644394 2614.623833 175 170 169
263.252711 -733.954525 3192.186356 105 151 178
385.209489 -255.680609 3044.330597 63 86 102
225.496149 -877.028561 3239.710236 234 209 223
400.958061 -245.837379 3034.100723 115 136 144
777.108097 1073.462105 2596.186829 96 105 112
815.581322 569.490528 2616.159058 89 183 203
406.792927 32.295308 3009.342384 98 144 168
406.797886 -246.718860 3042.803764 56 81 91
780.173540 1147.880459 2602.163887 90 99 108
423.512459 6.770450 3018.059540 76 115 144
661.635923 1027.180290 2723.747444 179 174 170
74.499726 -1156.349754 3434.764099 25 57 73
439.156532 -92.699629 3026.106834 37 64 102
406.487703 -60.353023 3048.803139 39 65 91
251.965690 -704.767609 3249.502563 111 109 41
251.965690 -704.767609 3249.502563 111 109 41
257.358789 -420.426893 3216.978836 157 192 208
249.859643 -428.788710 3226.599121 170 211 219
445.874262 -74.599582 3029.796410 127 163 174
701.204777 1041.395378 2705.601120 110 128 139
238.051486 -458.358812 3245.979691 148 196 207
238.051486 -458.358812 3245.979691 148 196 207
445.096970 13.858096 3025.271416 138 165 174
284.215665 -718.922853 3237.521744 100 102 24
444.991636 -59.370142 3036.229706 85 119 135
444.991636 -59.370142 3036.229706 85 119 135
456.848955 30.309585 3017.877960 131 159 175
780.769444 982.507801 2652.096748 47 60 87
456.601810 40.562621 3023.098373 42 67 104
263.010979 -761.250401 3268.627930 113 151 152
258.239794 -797.263432 3279.252625 153 176 178
791.286278 106.574547 2737.867546 203 197 159
828.263092 1110.130119 2608.184433 114 139 151
465.960312 -6.508268 3032.311630 142 174 183
481.133175 41.169581 3016.895485 34 63 97
295.054364 -710.117960 3258.628082 111 94 37
286.183262 -705.733061 3275.774002 243 225 175
258.295393 -820.514488 3322.037125 125 152 136
259.713888 -799.087906 3326.147461 98 97 19
316.880417 -611.433697 3257.935333 55 55 17
280.287838 -731.886244 3304.762268 114 91 28
278.019285 -761.545086 3311.011505 197 184 115
477.653885 -103.567123 3075.421524 92 121 138
833.464622 1041.381168 2657.314110 44 59 74
584.374523 -28.698713 2983.939171 199 201 141
163.475513 -1070.771217 3455.967331 36 38 53
284.366560 -760.391331 3321.801376 100 83 14
838.488483 1043.615818 2657.433701 44 59 74
838.488483 1043.615818 2657.433701 44 59 74
315.248084 -725.770903 3297.393799 239 218 170
146.479452 -1182.553005 3492.365646 24 39 55
476.076603 -93.024951 3096.069527 49 65 68
334.197760 -630.443621 3275.619125 109 111 59
453.066635 -126.630390 3127.307320 122 142 134
206.485629 -1046.147346 3435.097885 187 134 180
241.438913 -1039.034081 3405.525208 187 134 180
421.204185 -148.934174 3169.542122 109 128 133
325.197840 -785.972214 3316.566849 173 160 91
310.624576 -678.862619 3323.709106 89 83 22
331.142187 -646.972132 3310.050583 80 80 25
277.067709 -861.627388 3379.319000 77 81 41
342.815542 -663.830662 3304.870605 133 134 80
292.008567 -920.506763 3379.973221 25 47 57
519.421625 -96.750528 3105.660820 91 98 82
295.309210 -839.910221 3378.384781 68 64 15
469.512510 -117.758751 3160.695267 69 76 65
311.406469 -939.699459 3393.150711 55 63 76
251.099205 -1029.314423 3455.360794 137 120 154
291.863775 -819.208813 3402.258682 191 172 120
928.871059 1110.672283 2643.764305 92 118 138
636.208344 -91.982865 3022.679710 112 113 66
314.083457 -799.744225 3384.278107 128 110 59
291.877437 -940.388489 3423.176956 206 212 208
933.125305 1300.995827 2636.188889 63 72 84
963.474178 513.988972 2693.858337 253 253 203
946.579266 1253.412056 2640.282631 92 121 143
898.234463 1158.772087 2694.136810 57 79 101
51.209462 -1142.380714 3695.369720 25 37 55
957.418633 1165.199280 2647.517204 91 115 134
835.916710 62.987930 2869.012642 121 111 47
956.015110 1176.813221 2658.794212 46 66 94
958.273792 514.093924 2722.933006 144 162 78
317.698288 -833.008385 3441.778946 59 58 16
686.132717 -169.204247 3044.297218 153 166 220
373.016024 -798.306751 3395.375443 39 40 14
436.749601 -584.504128 3318.371964 113 134 102
300.574565 -1002.886295 3484.723663 111 116 136
1010.802841 453.347588 2697.419930 148 145 39
319.617057 -1006.054115 3485.000229 83 86 111
906.848145 23.985335 2856.391144 227 232 240
980.823421 -7.756021 2802.178574 106 188 223
952.213573 1013.429737 2743.016052 73 96 105
991.988373 1109.774399 2710.993767 64 85 114
676.908302 -244.372535 3155.628967 160 179 196
486.432743 -773.777533 3392.390060 234 231 195
484.208918 -805.401325 3404.724503 125 138 93
526.768255 -975.623417 3385.030365 115 157 174
711.131811 -235.179949 3141.022682 168 185 192
584.572983 -977.920532 3335.103607 93 117 142
605.191565 -956.403542 3321.984863 225 238 239
576.156139 -731.154537 3334.261322 94 152 208
1022.304821 1194.409752 2720.855141 146 174 187
597.733450 -995.675278 3339.602661 180 184 185
1025.545692 1239.710903 2715.564346 101 128 146
623.121881 -943.492508 3324.347687 127 183 202
1029.669762 1256.969166 2725.276566 186 219 226
1027.025795 1191.433239 2752.497482 80 110 135
1055.620098 1260.007954 2729.203796 89 105 121
1030.416679 1197.223663 2762.605286 162 192 201
1052.351665 1251.835060 2742.179298 208 239 245
1048.069572 1155.624008 2767.411041 95 126 147
1079.240990 108.998168 2836.374092 185 169 206
1046.026897 1033.227730 2792.328453 61 96 125
822.004700 -633.581352 3186.034012 249 253 255
824.377346 -677.520704 3197.736931 180 190 195
857.774639 -568.122673 3158.744621 77 162 195
1105.282307 120.068502 2845.790291 185 170 207
1091.601753 409.122992 2840.039825 120 128 41
857.608986 -663.736439 3172.433662 32 65 103
1064.433384 1290.723515 2785.148621 60 69 84
1131.218719 149.221814 2821.582222 155 166 215
1090.561581 1089.554310 2780.100441 126 164 179
1059.384060 1126.563168 2810.627937 60 80 99
704.176426 -827.470493 3361.870575 115 143 164
791.826105 -712.648821 3272.060394 56 87 123
586.882687 -1273.555851 3541.146088 193 221 234
863.843727 -686.400700 3203.300858 170 186 198
912.096882 -634.048319 3148.763847 167 179 180
742.284012 -828.929615 3357.006836 154 185 198
909.860992 -655.148458 3174.243736 95 140 158
1204.126740 390.043783 2778.964043 85 81 17
1070.623779 1260.410881 2835.602760 143 173 192
870.493603 -693.013239 3224.249649 69 94 118
1092.142677 1158.043385 2826.763344 114 145 163
845.305061 -731.869078 3258.531189 75 110 139
860.894489 -702.976799 3246.170807 151 180 192
948.405170 -538.666153 3144.514656 39 75 112
772.872591 -810.775089 3355.727386 124 168 191
942.207146 -621.373749 3163.096619 177 220 228
1130.718994 465.766954 2867.776871 233 188 97
1081.388283 1257.323551 2850.759315 149 177 193
965.373993 -570.860052 3141.673088 255 255 247
973.084450 -533.549643 3132.207108 76 119 148
1077.363205 1252.515411 2869.454384 46 63 103
971.635437 -576.704788 3151.910019 127 154 172
1078.606701 1310.330677 2873.103523 64 69 78
1186.237621 86.996371 2870.129204 186 198 216
1046.847630 -430.245543 3070.498466 88 134 155
1013.188076 -509.200764 3117.143250 231 215 196
988.751602 -529.044819 3147.561836 146 189 203
956.809807 -563.584518 3189.821815 190 219 225
1026.912880 -489.961100 3109.066772 71 91 108
871.470928 -1186.298275 3341.155624 41 95 136
1005.133533 -522.264242 3144.063377 61 113 147
846.206665 -1379.909325 3394.834518 178 207 221
982.185650 -569.278097 3181.449509 88 135 166
982.185650 -569.278097 3181.449509 88 135 166
891.615295 -1352.660656 3353.836060 202 203 204
1136.596775 1123.880672 2870.528603 46 78 153
1093.350124 -439.385939 3059.486198 43 80 115
1006.118298 -537.591791 3163.358879 52 118 151
928.628731 -1158.589649 3302.688980 193 222 236
1096.811485 1295.588207 2901.001549 57 67 84
1020.434189 -519.464159 3149.236870 41 103 140
1238.376331 512.921000 2826.534271 232 185 92
940.514660 -1189.229965 3313.998795 27 110 156
1275.866699 485.883999 2797.853088 143 123 18
900.656128 -1378.458405 3394.729996 186 222 229
1119.718170 -454.936600 3071.031761 188 204 202
1185.037899 754.564190 2896.146202 68 81 50
1315.554333 562.859249 2772.022057 229 193 100
1268.162727 -234.819174 2909.923553 77 109 132
1169.591713 -406.577158 3035.263062 31 58 94
936.617088 -1242.159557 3374.697495 29 28 37
930.746174 -1235.056496 3381.097031 205 207 213
932.126236 -1251.328373 3395.392990 84 123 157
1189.455891 991.013718 2913.823128 44 77 157
1356.005478 574.171829 2769.138908 124 105 17
1178.989983 934.404945 2934.149551 121 137 167
1103.927040 1289.575291 2990.369987 36 48 108
1192.442513 1083.495331 2915.493774 253 253 253
1302.117825 -204.930091 2906.092072 72 100 117
1193.581200 1067.453289 2918.073273 84 117 185
1233.178139 829.281235 2898.426056 124 134 95
947.083187 -1223.941231 3402.437592 229 235 240
1316.430950 480.860472 2840.105247 245 241 232
1210.255623 1026.105022 2913.098907 254 252 241
1285.723782 -306.629848 2948.022079 133 157 159
1306.403828 465.629148 2863.823318 144 136 49
1322.149563 96.041453 2877.394676 154 150 202
1292.312717 -383.006287 2964.497375 138 160 167
1334.321022 -161.764359 2898.804092 157 182 188
1279.734421 -369.815302 2984.394455 34 83 125
1330.872059 -183.687186 2913.731194 130 149 159
1300.799942 446.654129 2895.874023 253 252 227
1229.450035 1010.244656 2928.585625 40 74 151
1304.962063 -265.915871 2954.912758 61 84 109
1330.208683 -216.181517 2923.889351 41 69 98
1264.370918 -436.332273 3030.423737 197 214 213
1339.530563 -270.600748 2936.697388 55 84 105
1278.810501 -422.759151 3022.722626 72 117 143
986.849689 -1058.695316 3420.269394 26 82 135
1062.540913 -1243.652058 3367.753983 157 209 228
1373.851204 -213.995194 2916.085625 98 131 141
1043.665028 -1355.155849 3405.197906 29 86 194
1043.665028 -1355.155849 3405.197906 29 86 194
1258.034706 1055.255699 2958.067703 33 67 146
1392.484570 -44.597223 2908.049774 105 133 146
1255.034351 1001.671124 2981.483459 66 120 167
1057.571030 -1356.305408 3417.942429 212 234 247
1355.378723 -347.053170 2978.877258 43 89 117
1095.074272 -1101.267147 3358.171082 24 64 178
1261.483288 -455.398273 3104.375458 118 194 212
1261.483288 -455.398273 3104.375458 118 194 212
1279.074001 -434.696341 3089.304161 106 197 216
1132.369232 -1219.691753 3339.197159 217 239 246
1397.431564 -166.547048 2941.549683 92 124 137
1336.550903 -400.663757 3040.718460 130 153 159
1358.124352 -367.765570 3015.620041 28 56 87
1358.124352 -367.765570 3015.620041 28 56 87
1341.960812 -425.225163 3051.426125 46 66 91
1066.570568 -1404.936028 3467.561340 196 217 225
1403.203869 87.464958 2938.252831 34 52 80
1413.379765 111.687207 2934.847832 92 76 139
1428.367424 -181.573975 2948.958778 128 154 157
1080.962372 -1270.175838 3465.340805 214 227 228
1373.292732 -397.937584 3037.921906 150 176 183
1419.805622 -220.374107 2970.434189 146 170 177
1349.843502 -439.776993 3081.181145 167 205 210
1368.245506 -418.663216 3057.962990 49 92 117
1452.685738 -92.493695 2946.108818 152 183 185
1440.337753 -224.280524 2973.782349 51 92 114
1473.400497 -14.628790 2919.791603 109 143 153
1455.531025 -79.092139 2953.517532 146 183 188
1455.531025 -79.092139 2953.517532 146 183 188
1410.782051 -351.706791 3035.787773 113 151 163
1293.261051 -462.310123 3189.927864 125 197 214
1453.830624 -30.118686 2966.597939 139 179 191
1453.830624 -30.118686 2966.597939 139 179 191
1400.111961 347.453594 3004.334450 98 122 156
1453.683853 -217.059493 2983.973312 141 169 176
1440.979862 -26.970389 2982.501411 139 179 191
1469.623756 -44.568491 2950.226974 170 201 204
1477.797413 96.530986 2932.627869 101 121 158
1477.797413 96.530986 2932.627869 101 121 158
1322.519016 1264.432526 3032.851410 41 45 64
1451.891518 -259.566784 2997.686958 143 179 180
1451.891518 -259.566784 2997.686958 143 179 180
1467.440605 -59.931177 2964.680290 36 75 109
1458.747196 133.877671 2963.498878 55 41 128
1457.639408 -238.323498 2995.627975 27 53 80
1427.466583 -336.774540 3042.757034 39 73 103
1458.036327 -264.341140 3004.946327 129 164 175
1488.844967 15.307355 2943.787575 115 160 175
1128.250980 -1255.501938 3512.345886 197 228 241
1499.965858 74.931431 2932.293701 29 47 76
1412.404156 -408.887959 3095.227432 39 89 130
1150.318813 -1325.546169 3510.869980 22 35 51
1489.733791 -178.548968 2989.181709 23 49 75
1455.402565 -364.137673 3049.588776 116 175 183
1163.582325 -1306.552315 3511.029053 23 39 53
1480.054379 -230.193496 3017.333794 152 181 186
1161.784458 -1330.323219 3520.450592 170 178 188
1160.138893 -1315.884113 3525.540161 70 89 106
1481.107235 93.806803 3002.592659 47 62 114
1176.380539 -1280.781174 3514.923096 46 138 176
1496.746635 -207.444930 3018.358231 163 191 191
1327.850246 -463.304710 3258.509445 138 197 211
1466.760731 108.325422 3037.299156 96 142 194
1461.807251 136.885047 3046.726418 200 179 226
1421.684742 -445.341206 3156.237602 143 199 209
1426.461601 -443.615580 3170.342445 65 115 137
1218.526554 -1246.426392 3520.454407 128 201 224
1432.512856 -407.011509 3175.657082 25 79 124
1493.678856 397.799015 3040.379715 94 134 163
1285.100079 -602.330303 3401.580048 246 252 254
1507.399845 397.348142 3057.767677 55 95 144
1536.954498 167.594922 3060.603905 218 208 227
1263.669014 -750.988674 3514.785767 33 172 205
1197.269154 -849.425125 3624.986267 186 219 226
1456.928062 -401.223707 3234.455109 169 204 212
1531.018448 184.131873 3093.003845 218 211 228
1536.360550 -252.049255 3128.244400 190 214 215
1554.574394 153.686738 3076.350212 97 114 206
1511.983585 694.201803 3100.908852 184 186 108
1559.178734 170.228744 3078.184319 253 249 252
1477.495098 -476.748943 3243.500900 252 236 206
1517.386913 794.220448 3094.895935 97 84 32
1542.235661 1116.380310 3039.162636 144 199 217
1208.126831 -866.017818 3661.360550 94 165 185
1473.241615 -488.469505 3284.669495 92 118 131
1473.241615 -488.469505 3284.669495 92 118 131
1509.151268 -229.276419 3232.696533 255 255 253
1509.151268 -229.276419 3232.696533 255 255 253
1455.372620 -576.856852 3340.254974 134 139 140
1467.568874 -563.750505 3332.797241 202 199 187
1441.924191 -627.401733 3376.380157 34 61 96
1265.562534 -957.961845 3687.450027 194 230 241
1435.250092 -681.547832 3437.511063 38 86 129
1513.719845 -483.511829 3311.926270 25 97 144
1513.719845 -483.511829 3311.926270 25 97 144
1513.719845 -483.511829 3311.926270 25 97 144
1543.168736 1105.090523 3154.106522 57 140 167
1308.915329 -915.856647 3647.987747 164 173 176
1333.892250 -812.798786 3605.415344 22 74 124
1443.941784 -696.050930 3435.009384 127 146 163
1572.812080 1144.758224 3111.583710 169 215 224
1491.082096 -516.889048 3356.531525 182 184 184
1588.242340 1131.888580 3092.306137 190 221 225
1403.039360 -729.244328 3503.478622 46 84 123
1403.039360 -729.244328 3503.478622 46 84 123
1321.327972 -910.545254 3645.921707 181 187 187
1552.658653 1102.560520 3159.788322 162 201 207
1469.477081 -638.916063 3410.369110 57 114 155
1452.986526 -612.539959 3443.846893 104 184 212
1417.374516 -739.255381 3512.236023 117 153 170
1374.710178 -837.996674 3591.383743 82 123 141
1374.710178 -837.996674 3591.383743 82 123 141
1613.212204 102.577341 3172.444725 191 205 224
1438.418961 -719.510031 3493.478775 57 94 128
1342.022133 -896.071339 3655.224228 170 194 207
1317.135811 -919.564724 3703.244781 139 160 169
1512.015915 -540.335894 3384.583282 20 105 155
1473.555374 -687.200785 3453.896332 46 91 135
1516.207314 -473.455191 3376.842880 147 166 178
1538.476658 1044.174290 3236.329269 158 181 191
1439.895439 -737.485456 3525.610733 133 185 200
1406.562710 -785.651493 3581.684875 183 220 229
1581.059837 1127.232456 3210.442734 196 215 216
1644.706535 169.680262 3190.537262 254 254 255
1644.706535 169.680262 3190.537262 254 254 255
1494.645309 120.220137 3439.874268 159 195 227
1669.765854 1148.876762 3099.901009 194 219 228
1493.661118 -611.257505 3501.970291 116 192 214
1624.359322 1160.740948 3177.435493 47 176 203
1567.598915 -383.528423 3420.501709 66 99 123
1567.598915 -383.528423 3420.501709 66 99 123
1601.504707 981.015968 3283.465195 69 115 171
1390.076923 -864.403725 3762.119675 216 238 250
1710.152817 1182.498550 3141.196251 101 183 211
1418.012047 -1062.511349 3762.753296 247 238 227
1394.497299 -1043.251991 3812.844849 217 232 233
1572.935772 1287.722969 3365.536499 55 173 208
1425.380516 -861.423969 3763.167572 133 181 232
1743.716621 163.366723 3185.106850 254 252 254
1506.310654 -631.251526 3663.176727 25 85 155
1506.310654 -631.251526 3663.176727 25 85 155
1655.417252 -20.484453 3447.485352 162 176 196
1655.417252 -20.484453 3447.485352 162 176 196
1684.399986 79.396242 3407.981110 220 214 234
1675.605392 68.378323 3426.092529 204 207 229
1617.299652 -180.798328 3544.745636 131 155 192
1694.838905 84.341222 3398.130798 235 223 234
1803.575516 536.460924 3194.059944 85 112 39
1462.809372 -1016.927147 3898.417664 101 134 146
1699.439049 1087.440109 3363.725281 107 145 184
1703.624344 101.114249 3417.143631 126 117 205
1528.164959 -684.790182 3780.981827 163 177 225
1684.877586 305.742669 3465.470505 125 137 125
1649.523926 -177.839291 3582.367706 228 230 237
1653.859520 -54.586977 3573.027039 207 211 236
1709.309769 809.905815 3426.663971 27 36 45
1543.499565 -679.887915 3812.567139 154 152 214
1714.461327 -367.140198 3509.568024 168 179 222
1714.461327 -367.140198 3509.568024 168 179 222
1507.145023 -804.183292 3903.584671 249 233 247
1450.640011 -1063.294411 4020.856857 90 132 150
1556.417084 -693.293381 3816.038132 155 147 207
1816.261292 1140.549088 3240.004730 38 56 116
1557.263279 -673.978043 3818.028641 155 143 206
1557.263279 -673.978043 3818.028641 155 143 206
1821.899223 580.298710 3278.640747 54 68 34
1563.384533 -661.567736 3815.565491 252 250 254
1851.850128 626.852417 3232.431412 147 149 60
1678.655624 -73.622698 3585.173416 87 132 196
1721.792984 -97.914249 3528.347397 251 242 231
1766.326714 336.196804 3446.055984 31 52 54
1814.251518 553.712416 3347.470856 52 69 56
1525.384903 -957.437038 3961.099625 165 160 197
1836.035347 641.500664 3302.000427 34 52 45
1500.733852 -1070.170975 4020.883560 204 177 204
1757.496834 136.227393 3489.044571 41 63 104
1755.896759 941.280556 3451.672363 120 128 158
1553.012371 -914.777470 3927.043533 216 203 220
1766.840744 103.301191 3478.298950 168 158 196
1810.400963 416.601467 3403.097916 53 93 92
1772.162247 11.768615 3503.258133 184 180 217
1524.881744 -1047.518921 4024.639893 200 169 199
1773.246384 112.394941 3505.197144 170 176 190
1563.347816 -977.487183 3957.727432 207 178 207
1782.219887 234.655261 3483.078766 76 106 117
1740.239906 -143.707240 3581.793594 39 62 147
1836.804962 542.936516 3366.542816 88 119 130
1577.241325 -955.791855 3939.245605 216 191 216
1738.247490 -55.300587 3586.988831 231 229 234
1749.510002 59.063387 3560.580444 61 88 117
1722.292519 -421.740675 3647.252274 45 67 145
1602.882195 -818.468666 3891.778564 236 215 230
1853.483009 660.403872 3342.114639 84 107 114
1788.008308 119.139719 3508.235550 150 175 181
1759.407234 -48.075145 3577.003479 53 65 151
1798.993492 226.417542 3498.590469 91 123 143
1751.931763 -215.968299 3615.495300 25 144 189
1814.466095 137.813437 3480.954742 132 163 174
1678.599167 -677.073240 3797.448730 197 186 213
1788.119125 84.944582 3549.012756 120 135 144
1719.679451 1062.376976 3642.221832 80 101 153
1903.324890 578.150082 3323.520279 37 57 71
1903.324890 578.150082 3323.520279 37 57 71
1631.964684 -921.177673 3930.718231 201 174 207
1630.442810 -906.809998 3932.866287 208 183 212
1669.134521 -804.049492 3865.587997 204 172 213
1904.203796 636.498165 3335.813904 41 66 88
1794.259644 -369.001222 3610.630798 167 217 234
1906.185150 631.214952 3342.927551 103 136 150
1806.331825 -314.804029 3590.934372 108 190 219
1641.677094 1322.702217 3821.287155 41 43 63
1861.116600 252.192116 3461.022186 26 43 62
1632.240868 -977.338314 3973.357391 220 185 210
1668.940735 -853.503609 3896.779633 247 217 222
1794.062042 -36.548504 3610.467148 37 74 112
1911.303711 600.179625 3349.646759 41 63 89
1917.785263 548.765612 3341.991043 104 125 138
1917.785263 548.765612 3341.991043 104 125 138
1904.282951 470.599985 3373.903656 33 60 71
1785.208321 -400.220203 3660.620117 242 242 249
1785.208321 -400.220203 3660.620117 242 242 249
1918.173981 731.430960 3349.596024 31 45 56
1802.786255 -392.921615 3646.635437 81 147 195
1797.163963 -421.023798 3666.870880 196 209 221
1931.324005 716.361523 3348.687363 44 63 91
1720.943451 -745.784903 3841.636658 138 116 164
1797.751999 -426.167536 3676.371384 66 113 172
1841.551971 59.371817 3570.646286 132 158 171
1944.824409 609.975290 3340.308380 34 48 65
1828.001404 -399.954987 3625.812149 61 133 192
1848.634529 89.298385 3562.145233 41 73 109
1937.086487 537.380219 3364.908600 38 54 67
1939.447021 736.776876 3350.388718 81 110 128
1718.664169 -742.946053 3875.954819 199 166 201
1738.550186 -795.716858 3850.614166 215 185 211
1693.986511 -964.079189 3955.392075 150 107 148
1898.594856 268.429589 3483.382034 29 48 68
1958.790016 624.457932 3348.901367 133 159 170
1671.873093 -1028.750420 4010.258865 206 185 213
1707.595825 -935.294151 3936.808014 190 156 192
1735.898018 -855.894470 3877.369308 192 156 187
1910.095406 295.775151 3483.281708 138 157 151
1718.704224 -934.327221 3932.991791 219 183 209
1728.556633 -918.309402 3915.513611 210 168 202
1738.851357 -863.721466 3892.139053 222 193 203
1709.297371 -1002.213287 3959.580994 222 192 210
1692.020988 -1024.629498 3999.639130 218 187 212
1797.794342 -412.772322 3756.636047 92 91 137
1863.008308 25.494576 3610.582733 105 144 159
1885.912704 -311.691880 3587.465286 239 252 253
1963.515854 433.105183 3394.244766 37 56 73
1817.372131 1090.435600 3664.419556 204 196 189
1975.716400 521.294212 3368.632507 48 67 94
1918.263817 209.047413 3503.148651 38 66 100
1692.202568 -1042.209435 4027.470016 212 174 194
1889.099503 100.364101 3569.604874 122 150 159
1711.778831 -971.860886 3994.237518 156 124 150
1711.778831 -971.860886 3994.237518 156 124 150
1873.648643 -347.627544 3638.457489 22 141 186
1941.757393 233.335447 3477.665329 125 150 161
1919.754601 133.785462 3537.871552 155 171 178
1901.426697 -269.510889 3598.450089 121 182 200
1939.530754 290.470147 3496.923065 144 178 182
1996.285629 656.531763 3362.638855 31 41 64
1891.243172 26.546177 3614.830399 163 192 197
1996.076012 563.179922 3386.561584 42 66 90
1596.592522 -193.395936 4203.943253 202 226 228
1937.819862 145.068514 3535.542297 118 136 145
1920.540047 -196.431470 3594.515991 149 192 206
1948.430824 171.883190 3528.633118 54 78 100
2009.148598 506.976986 3401.706696 97 123 139
2025.206947 607.239676 3373.114395 33 50 69
2025.835419 591.091394 3378.799057 71 102 121
1902.898407 -40.643403 3670.853806 119 157 166
2024.242401 620.942736 3383.395386 72 102 123
1966.304970 282.505274 3524.393082 144 164 170
1677.839661 -776.761007 4190.750122 170 178 191
1975.709152 283.539677 3530.332565 46 73 99
1959.128761 107.306921 3574.092865 28 53 71
2033.449936 504.726076 3399.826431 140 169 177
2033.449936 504.726076 3399.826431 140 169 177
1940.088844 33.679271 3639.516449 139 154 162
1981.049156 167.076397 3556.312180 121 145 158
1957.818604 68.439764 3620.182037 90 114 136
1959.335518 67.964017 3617.187500 90 114 136
1936.559296 -2.430842 3687.653732 32 58 85
1978.692055 154.648626 3602.038193 100 130 145
1988.595009 183.773983 3579.485321 44 67 99
2002.777100 264.185381 3547.548294 42 59 80
1952.314949 29.272905 3670.469284 142 164 170
1953.546143 19.161800 3677.993393 38 66 98
2069.408798 548.033953 3405.217361 136 161 170
2002.543831 52.834904 3614.009476 144 155 155
2013.839340 -117.651582 3601.892090 52 105 155
2016.261482 174.345577 3608.151245 139 160 173
2021.245956 130.229890 3600.122833 37 65 96
2094.053078 636.090469 3436.665344 32 51 67
2066.357040 269.551849 3515.185165 158 184 193
1997.759247 36.536309 3687.833786 159 178 186
2002.395058 46.576783 3676.142120 98 113 128
2040.204811 115.575063 3603.078842 40 62 90
2062.103462 186.369860 3555.923843 50 70 98
1973.465538 -471.141672 3864.207077 170 176 187
2115.104866 562.275219 3449.243546 88 133 137
2021.212196 41.316861 3707.624054 45 68 98
2112.823296 546.480656 3474.465179 38 90 108
2053.556252 91.406798 3634.361649 49 67 94
2057.015800 178.228807 3633.555603 62 106 135
2069.146919 131.516361 3617.460251 34 60 96
2061.787415 75.842059 3648.533630 160 187 199
2067.940712 98.439980 3701.288986 170 197 205
2063.747787 81.412590 3721.140671 44 74 99
2106.202507 273.753190 3619.042969 179 191 195
2084.587669 203.094339 3684.357452 85 109 130
2101.274681 218.443418 3664.614868 129 155 167
2115.476036 245.160937 3654.963684 49 71 105
2078.393364 82.157731 3751.103973 173 184 191
2087.890816 78.911650 3729.987335 173 184 191
2116.771507 266.481757 3661.634445 61 90 123
2148.097801 357.721353 3587.703705 35 68 87
2094.919586 124.267232 3731.524277 112 148 166
2103.804016 207.986116 3746.509552 36 77 100
2128.437805 267.177200 3719.019318 143 166 172
2123.380089 243.622208 3733.694077 35 87 108
121.848738 38.049304 2784.974480 122 149 163
124.120677 -82.708490 2812.039375 47 74 100
158.804846 -120.840466 2834.159851 174 204 221
119.881070 173.689926 2835.160637 49 60 82
162.954581 136.371410 2829.871178 85 110 126
220.250010 -282.079935 2869.531250 55 63 90
220.547915 664.164114 2763.620186 214 202 190
250.714254 -550.976372 2924.794960 126 200 226
261.818743 -244.144583 2880.467606 133 118 159
249.347925 -403.007412 2929.093552 48 48 94
193.956470 415.575266 2903.669739 49 71 93
261.304379 1.828777 2918.585968 62 50 77
270.908165 84.127057 2909.054184 45 60 83
271.959639 665.819502 2832.862473 65 87 112
206.772947 -684.023809 3059.080315 101 123 177
206.772947 -684.023809 3059.080315 101 123 177
322.603846 -299.438763 2947.117615 155 185 199
289.387822 6.468226 2940.181541 42 60 91
333.090186 -146.015072 2928.144455 75 85 115
307.024336 33.838302 2929.854393 45 60 87
218.861008 -732.800484 3090.377617 129 117 150
336.959195 -230.200195 2960.424423 54 66 95
336.549377 -229.759169 2960.755730 54 66 95
322.383189 120.557320 2930.996513 50 67 93
335.954738 -179.835629 2962.396240 61 80 104
324.220943 144.069612 2934.269714 43 63 91
351.877809 -235.623503 2964.961243 149 178 191
339.312029 57.605618 2947.784805 91 119 145
338.397884 106.676698 2945.079803 62 83 105
327.070713 -621.034813 3056.823540 142 211 230
210.370874 -857.959461 3183.358765 220 207 227
820.783710 650.914288 2553.888321 38 110 150
398.702574 -265.789366 3002.651215 132 154 163
392.830467 28.764600 2977.537918 96 124 149
427.014351 -227.113032 3013.199043 40 61 81
355.799508 -353.070736 3085.960197 34 143 172
627.136278 1046.123600 2721.528053 189 181 174
662.148952 1029.560661 2702.433205 189 181 174
672.821617 1197.583866 2686.488914 105 112 124
739.194870 222.537160 2761.531830 41 65 127
452.967691 -264.051747 3061.535454 103 155 167
283.542800 -699.011612 3256.825638 109 100 17
763.958788 193.692708 2766.794968 50 77 141
818.015385 84.138936 2745.857048 170 189 156
703.380585 545.543432 2783.066750 159 178 202
486.940956 -137.832558 3039.068031 37 52 74
277.533031 -670.357323 3271.837997 144 133 58
502.560854 -104.734313 3054.801559 103 129 141
754.715681 1087.934589 2717.024612 61 72 89
118.531692 -1188.322353 3517.762756 28 41 54
306.622362 -862.205315 3376.939011 127 127 64
824.726295 1323.623753 2726.644897 93 113 130
891.456699 21.307030 2884.915352 124 148 211
1099.322796 597.658491 2737.551689 225 215 173
1016.825771 1186.304474 2785.710526 72 92 109
646.139002 -888.886452 3388.237381 26 84 130
879.995537 -445.924091 3143.045998 32 90 135
1009.908295 1140.181923 2852.136803 133 164 179
833.860683 -706.840897 3232.484055 60 91 116
833.860683 -706.840897 3232.484055 60 91 116
1133.371449 441.898632 2830.100250 145 145 23
749.020243 -827.354622 3351.031494 172 192 201
705.419159 -886.442280 3417.370224 176 201 209
1040.947533 1331.473637 2841.979599 81 86 86
963.548851 -513.618183 3131.797409 35 78 116
898.991966 -671.077394 3229.650116 53 103 129
784.703016 -804.627419 3365.709305 74 114 144
767.636251 -819.546127 3385.374069 28 57 88
1035.148716 -474.826574 3102.216721 157 176 181
847.255325 -1236.573696 3380.828094 29 38 51
847.255325 -1236.573696 3380.828094 29 38 51
1271.077347 -208.520555 2860.282516 46 77 104
1288.507557 -250.742269 2891.190529 69 93 108
1184.621334 -410.265160 3017.929840 45 68 93
951.524067 -651.653528 3306.747437 215 231 231
977.987766 -1341.496944 3378.750229 118 183 201
1351.824856 -153.460062 2892.225838 35 65 94
1320.073223 -301.732326 2943.807602 66 93 109
1327.420235 -313.284731 2951.489067 102 130 144
1381.855488 659.325600 2820.523643 172 161 80
1375.492382 -280.326843 2964.984894 110 116 114
1255.154228 1057.418251 2962.001801 45 80 157
1047.614098 -1260.053730 3447.373962 121 199 220
1366.821194 -368.439674 3006.475830 34 60 88
1445.202541 74.018365 2890.838051 36 54 80
1282.221985 930.734825 2994.298935 35 54 118
1437.506580 -222.739959 2950.512695 116 138 143
1052.540398 -950.105381 3475.016022 54 167 207
1309.162140 -353.849721 3125.061798 108 135 149
1064.551163 -1297.169113 3505.110168 19 54 79
1064.551163 -1297.169113 3505.110168 19 54 79
1473.836517 -37.781858 2911.511612 96 120 130
1449.903393 -225.469875 2963.072968 60 87 102
1441.556644 -267.807174 2981.893730 46 60 79
1482.067871 -100.104785 2932.418633 23 56 85
1395.660400 375.288153 2984.077263 42 71 130
1380.628490 -429.014111 3090.406799 119 188 205
1080.773354 -1310.630131 3534.327316 62 110 144
1484.107876 -88.662660 2970.737076 26 75 119
1457.590294 -315.429091 3027.054214 43 63 81
1520.495510 46.724480 2924.620438 87 127 145
1513.128948 94.256079 2927.776337 119 120 165
1513.182831 -209.688878 2998.556328 169 192 192
1513.182831 -209.688878 2998.556328 169 192 192
1161.134624 -1335.352898 3563.523483 47 147 179
1365.568161 1043.396473 3097.871780 46 115 170
1489.773178 -345.874119 3100.200462 92 181 208
1515.488052 373.033381 3038.458252 39 63 129
1515.488052 373.033381 3038.458252 39 63 129
1515.275002 -210.850096 3105.263519 42 89 121
1522.718430 -212.673879 3098.164940 42 89 121
1457.482910 -433.796930 3273.009491 38 101 141
1424.613762 -524.897814 3326.577759 239 231 215
1171.235943 -873.132992 3711.296463 87 157 180
1435.444832 -565.814924 3376.567459 200 191 173
1554.136086 1136.539078 3064.226532 67 112 138
1452.939129 -615.389633 3399.874878 129 158 168
1370.274830 -850.140095 3628.702927 44 64 92
1569.312668 1130.363274 3170.148659 75 112 130
1604.320145 1131.872082 3125.900459 80 124 148
1604.320145 1131.872082 3125.900459 80 124 148
1605.051422 752.708292 3167.874718 113 99 3
1602.476501 751.953459 3170.590973 117 103 7
1366.976547 -787.527132 3681.227875 98 173 207
1436.189842 -614.423323 3587.545776 134 196 216
1598.059082 1141.358471 3191.386414 101 185 203
1598.059082 1141.358471 3191.386414 101 185 203
1554.086208 -383.383155 3440.302658 79 108 126
1692.808151 722.562695 3140.880394 165 168 100
1561.798477 -358.997583 3438.263321 91 132 154
1571.806717 -359.266639 3460.882187 109 124 136
1616.208458 1333.891869 3238.260651 172 168 163
1362.118244 -940.760136 3899.810791 67 82 177
1464.862347 -635.824537 3727.553940 37 93 156
1487.304783 -441.334772 3683.437729 29 85 139
1357.664967 -954.214382 3997.601700 166 162 220
1627.348137 -28.770208 3497.674179 146 165 204
2395.309448 0.131513 2450.796890 245 245 218
1585.049343 -373.638654 3711.842346 80 134 209
1585.049343 -373.638654 3711.842346 80 134 209
1790.605545 714.939737 3298.867416 133 158 106
1742.770386 -103.190088 3511.879349 100 133 185
1470.654392 -1058.068943 4057.531357 157 134 166
1822.422218 410.009956 3383.200836 68 111 102
1759.453964 -218.279600 3601.121140 21 150 196
1818.477821 131.218803 3526.262665 82 112 133
1786.650085 72.679377 3588.969803 39 57 82
1786.650085 72.679377 3588.969803 39 57 82
1612.025833 -973.488522 3995.063782 199 164 191
1911.091614 663.861752 3334.641266 102 138 155
1921.061516 562.470579 3332.704163 25 39 47
1921.061516 562.470579 3332.704163 25 39 47
1936.309624 449.988556 3368.986893 86 120 135
1875.708580 157.296395 3519.665146 142 161 169
1787.663078 -531.363773 3748.715210 157 174 226
1787.663078 -531.363773 3748.715210 157 174 226
1965.557480 618.764400 3336.930084 135 165 178
1954.637718 415.978527 3382.766342 49 70 83
1922.867393 -246.592474 3527.725601 34 119 165
1974.515724 567.186260 3339.366531 77 107 126
1974.747086 630.501270 3345.067978 54 73 90
1868.067551 -203.240871 3619.578934 34 119 165
1868.067551 -203.240871 3619.578934 34 119 165
1695.289612 -997.845459 4002.843475 137 89 127
1705.970764 -982.921505 4004.375458 188 150 171
1705.970764 -982.921505 4004.375458 188 150 171
1908.950615 -308.490252 3611.070251 218 238 244
1907.418251 -275.304484 3622.706604 34 127 168
1915.458679 49.459612 3592.951202 131 153 168
1895.126724 27.627739 3637.783051 136 155 164
2016.830444 675.036669 3355.489349 93 122 143
1903.431511 -318.186760 3667.502213 91 184 214
2028.942108 720.715380 3350.114059 98 117 130
1957.331276 180.595815 3532.059479 143 162 176
2005.327606 381.606698 3424.987030 84 139 142
2005.327606 381.606698 3424.987030 84 139 142
1939.429665 122.250271 3573.265839 56 78 110
1979.978180 245.745730 3528.823853 39 55 74
1965.518761 43.204632 3597.840881 44 64 89
2061.657715 583.311987 3373.224640 97 124 145
1984.833336 201.514077 3568.444061 65 97 121
1986.820030 161.666989 3568.027115 69 91 112
2067.273903 550.410032 3379.653549 56 75 97
1962.658501 44.586417 3633.638000 145 165 177
2077.553368 667.566776 3366.839981 52 64 82
1989.618301 186.119580 3589.307022 72 97 115
1984.820938 39.018124 3623.141479 89 105 119
2094.920731 518.840837 3395.841599 53 72 87
1998.141098 40.422562 3646.337509 84 105 121
2080.016518 348.284221 3472.506332 35 73 91
2063.774300 270.334053 3519.755936 164 181 193
2010.549164 55.568463 3689.411163 168 186 195
2049.245071 179.956508 3629.061508 139 164 176
2062.947655 102.042401 3663.670731 56 85 112
2087.989426 83.291763 3691.710281 52 83 107
2129.011154 248.339272 3671.646500 63 124 134
2164.640045 672.031450 3678.988266 87 143 149
-220.966315 129.737520 2833.476639 158 164 177
-185.377359 304.774952 2928.889275 140 147 162
94.842815 40.030318 2798.778343 91 129 152
692.049217 783.415365 2460.337639 39 128 168
132.178664 -119.254231 2848.200226 142 189 204
-22.939833 434.447050 2870.338440 140 147 162
60.371739 209.746933 2858.605003 53 76 100
148.280334 7.377975 2835.094452 56 83 111
139.824545 -54.663390 2846.450424 108 139 164
161.170769 -68.667930 2845.898056 35 49 72
154.012382 -99.873149 2855.601692 69 103 129
74.780488 263.257051 2860.918427 52 81 108
152.082765 -55.900079 2859.429932 114 147 162
107.778132 255.383968 2849.897575 52 81 108
167.050111 -40.011805 2853.551865 60 87 116
161.353576 159.703207 2843.000984 84 120 138
214.393997 -304.983521 2878.358650 164 169 182
225.385523 -304.741883 2874.266243 164 169 182
210.851932 -266.968751 2879.121208 49 58 88
221.074104 -269.945812 2875.961113 49 58 88
13.515992 559.895372 2910.931969 60 84 110
234.015870 -85.201275 2886.688995 30 40 68
230.181503 52.697158 2910.024071 63 98 129
246.638107 90.445787 2907.999420 148 175 201
250.787878 115.109050 2908.799744 94 130 156
260.879493 0.490374 2919.347763 34 31 56
252.838039 -456.946802 2979.022980 190 220 230
252.838039 -456.946802 2979.022980 190 220 230
836.008739 562.732172 2555.427551 213 235 238
296.752906 18.594116 2945.809937 64 89 115
292.325830 -531.712627 3013.261414 80 181 210
332.698488 -165.382683 2963.132858 31 51 82
330.493188 -29.438844 2954.342270 60 85 121
716.171074 1137.417984 2612.481689 178 172 165
327.145958 59.491104 2955.355072 64 96 126
334.264708 -172.848678 2975.783157 112 158 181
710.171509 1219.245338 2633.837891 174 167 163
266.636419 -688.036013 3097.304726 215 204 220
255.243635 -669.810343 3106.041908 65 65 121
179.033720 -740.284204 3161.777115 216 194 208
373.680282 -34.407690 2993.107224 57 83 107
758.608198 1288.349342 2632.305527 86 90 100
273.323369 -725.275135 3163.482666 71 65 122
273.323369 -725.275135 3163.482666 71 65 122
106.287849 -1006.231213 3305.269623 116 131 147
132.681382 -998.274612 3292.139053 116 131 147
423.715210 -90.616983 3024.207115 120 147 168
445.057249 -194.843459 3034.487343 24 39 58
209.124994 -931.076336 3272.899628 160 128 174
259.949875 -814.829636 3232.902527 192 164 197
273.185611 -745.098686 3228.771591 115 161 172
86.263329 -1084.370136 3384.088135 97 137 153
284.675455 -702.210045 3273.058319 137 121 77
270.732594 -797.098589 3314.510727 82 87 13
290.564060 -871.755886 3311.698914 75 88 94
276.700830 -839.549351 3330.329514 90 122 119
266.287160 -848.352909 3374.172211 86 107 96
297.191453 -882.889652 3361.026764 80 111 118
907.769966 49.350554 2876.606750 128 125 197
985.304260 1202.225971 2725.292969 90 120 141
305.711746 -812.290764 3391.958237 113 97 48
1008.325005 1265.156269 2738.092232 46 55 72
1031.660938 1199.823093 2794.067192 96 123 137
1040.785980 1173.129940 2797.694969 35 50 62
1042.118549 1268.275833 2792.404556 170 202 217
1128.975677 324.834013 2838.224792 76 78 25
1048.501587 1119.478798 2826.424217 141 176 191
1172.581387 771.498775 2804.485512 28 57 114
1084.429932 1259.703732 2855.296326 137 169 186
889.710331 -673.108721 3189.929199 53 77 100
853.197098 -711.219978 3239.261627 54 90 117
911.808300 -655.264759 3192.998314 30 76 113
1274.710751 -250.236130 2882.468987 54 93 115
839.982891 -734.802628 3268.009567 61 102 129
943.595028 -602.035046 3179.999161 35 90 131
1125.118065 -447.628689 3027.320099 31 59 86
772.522974 -802.168751 3340.504456 29 53 82
1299.431419 -209.523964 2884.383583 155 179 187
1296.799088 -221.309376 2889.085388 66 91 110
1323.909187 79.346466 2841.810036 101 138 195
1283.010006 -270.214319 2906.779099 74 100 120
765.433311 -790.022564 3359.700012 120 160 183
711.199760 -887.135124 3413.238907 161 188 205
1294.858837 -252.982235 2904.226685 110 136 151
1292.677212 -261.423898 2909.446907 34 60 78
751.944160 -839.732170 3383.551025 83 112 132
1309.413052 -224.890804 2899.370956 120 146 159
1291.675091 -286.291265 2919.341469 64 95 114
987.867928 -543.839502 3189.321327 35 81 116
870.742702 -1359.350300 3362.365341 147 150 158
1299.461746 -298.382902 2928.190422 76 107 129
1218.020725 1026.001263 2879.007149 175 183 194
1218.020725 1026.001263 2879.007149 175 183 194
1315.935612 -276.525068 2926.327324 90 121 135
1315.935612 -276.525068 2926.327324 90 121 135
1338.429928 -210.976791 2906.855011 117 139 149
1351.947117 105.474782 2868.713570 130 108 171
1317.199802 -287.941885 2935.077286 49 77 94
1317.404366 -295.728421 2938.511086 116 143 157
800.097179 -1472.980976 3468.629837 226 235 239
1380.148602 -145.262051 2890.620613 141 157 163
1347.885990 -298.511934 2954.031563 115 140 148
1357.059956 -308.022594 2948.372269 15 32 52
1001.249599 -1171.332455 3325.111771 182 221 233
1403.758907 -93.905562 2905.940628 20 38 62
1400.913811 -209.523225 2924.497223 137 174 185
1432.360077 -37.381425 2886.001778 53 77 98
1372.313499 -297.761798 2959.308243 60 75 86
1412.701511 -179.884017 2917.141914 41 68 88
1365.576267 -303.976417 2971.728516 139 162 173
1442.601681 -16.534182 2882.517433 105 133 144
1415.174007 -172.137272 2920.334053 128 159 168
1439.871597 -12.864736 2888.846779 105 136 146
1435.602570 -40.811074 2898.498344 139 164 172
1435.602570 -40.811074 2898.498344 139 164 172
1428.895760 -91.702694 2913.951111 16 33 56
1433.772564 94.351542 2899.547005 20 31 63
1435.151482 -140.018523 2922.923851 42 64 80
1259.374523 1053.748989 2958.591461 26 57 136
1380.617237 -309.265590 2985.055923 74 104 124
1388.457870 -294.862008 2978.352356 135 151 159
1371.992207 -370.624375 3002.041435 21 40 67
1044.788933 -1124.174500 3346.368790 23 71 129
1435.926056 -183.778369 2936.549377 129 153 161
1436.935520 -290.762782 2958.789635 97 112 121
1280.575371 1132.473755 2959.832764 82 137 168
1455.056572 90.905780 2909.978485 27 38 67
1462.006664 -92.971236 2922.390747 26 40 63
1014.574528 -953.632736 3379.743195 25 129 172
1469.148540 -111.442542 2922.799873 25 46 73
1492.248249 -6.756841 2900.871468 66 87 102
1414.656258 -343.441105 3005.243683 129 149 156
1466.269016 -79.841238 2940.939140 145 187 191
1505.016422 30.926970 2905.494308 26 40 59
1433.137608 -292.419124 2996.448708 138 160 168
1477.171040 -84.316659 2947.492599 24 72 99
1101.797104 -1123.029423 3365.712357 54 136 192
1477.965832 -188.323355 2965.478897 122 138 146
1466.821575 -225.017858 2979.342079 129 154 161
1367.643642 -419.837379 3084.174156 31 76 114
1472.677803 -215.757036 2980.920410 46 81 98
1479.364777 -39.460865 2961.116219 39 82 112
1456.477737 -282.720757 3002.978134 104 142 159
1452.307796 -294.513607 3014.962196 147 164 171
1450.619602 -305.902386 3017.800140 46 66 83
1442.961979 -323.751664 3028.476524 82 110 130
1448.299217 -326.744866 3034.126854 44 71 91
1454.699421 -321.323323 3037.947845 112 141 156
1472.957134 -278.245044 3018.713570 61 90 108
1470.990849 -280.340123 3022.328568 50 77 95
1474.303150 -287.150431 3023.867989 121 147 156
1460.939503 -347.508812 3041.734886 20 40 66
1460.939503 -347.508812 3041.734886 20 40 66
1464.916039 -328.348708 3043.845940 73 99 118
1086.112785 -1272.159576 3462.990189 208 225 237
1511.404896 -210.442615 2999.913216 154 175 182
1499.106979 -226.689124 3016.346741 120 147 157
1499.106979 -226.689124 3016.346741 120 147 157
1498.186779 -249.627900 3021.489525 133 156 171
1500.713921 -268.091202 3030.576897 62 89 105
1528.144455 -191.908026 3001.266861 110 127 131
1428.362179 -413.063812 3115.863800 30 62 98
1417.979717 -431.833696 3127.324677 148 193 204
1523.734760 -216.601133 3014.395714 45 64 85
1523.286533 -209.287190 3017.298889 129 146 153
1510.378838 -264.870930 3035.995674 104 133 148
1474.712753 676.502132 2985.162735 113 95 24
1518.174362 -240.945339 3028.221893 108 130 144
1531.426239 -234.929538 3020.646667 60 85 101
1129.375267 -1244.682217 3479.074097 181 211 231
1517.094994 -279.133248 3045.786667 99 122 134
1515.562439 -269.188118 3049.744606 105 132 147
1177.376842 -1172.232819 3445.379257 46 101 146
1428.250313 -439.949226 3164.319992 43 82 112
1442.229271 -420.191956 3157.032013 13 44 75
1552.644444 -281.170917 3058.114052 51 85 109
1515.094566 372.498655 3038.820267 23 46 108
1156.878662 -1312.971401 3521.572113 14 22 38
1169.891453 -1011.634541 3484.111786 17 71 187
1515.862751 393.721747 3050.072289 63 111 151
1472.385502 -429.058838 3169.484520 20 53 79
1385.417652 -529.634809 3268.661118 19 110 157
1202.398396 1412.645340 3321.831131 51 169 197
1452.434731 -402.046633 3242.346954 228 254 255
1569.424248 610.218573 3050.876427 169 176 91
1525.354004 1105.051231 3064.839935 57 164 188
1230.076313 -1035.521603 3535.957718 34 143 181
1457.695675 -496.527290 3306.792450 164 174 171
1452.797318 -420.650387 3311.533737 80 162 183
1452.797318 -420.650387 3311.533737 80 162 183
1459.803581 -490.700769 3314.249802 57 75 89
1435.730076 -524.917173 3345.830917 175 177 179
1198.630047 -956.095600 3617.651367 141 183 202
1198.630047 -956.095600 3617.651367 141 183 202
1416.901112 -628.932714 3385.333252 20 50 89
1230.047894 -836.876583 3630.458832 35 142 181
1457.652092 -447.394800 3379.129410 19 81 129
1459.873581 -629.214144 3394.775772 25 49 73
1422.320557 -683.339357 3458.489609 34 71 111
1501.663208 -486.065388 3363.354874 55 101 125
1642.814636 656.350040 3124.945068 92 78 6
1448.297882 -622.464275 3433.595276 34 78 119
1481.827259 -496.628094 3403.644943 79 87 100
