ply
            format ascii 1.0
            element vertex 20488
            property float x
            property float y
            property float z
            property uchar blue
            property uchar green
            property uchar red
            end_header
-525.155735 585.986519 1702.572250 42 69 96
-525.155735 585.986519 1702.572250 42 69 96
-520.878124 563.406324 1693.163300 35 64 96
-484.860039 492.674112 1624.296379 113 153 168
-524.137974 595.387602 1702.839279 41 67 93
-524.137974 595.387602 1702.839279 41 67 93
-524.137974 595.387602 1702.839279 41 67 93
-528.916216 607.901859 1712.521172 44 75 102
-475.454998 416.167593 1603.403473 103 142 166
-474.133301 430.850267 1604.664612 83 122 148
-474.133301 430.850267 1604.664612 83 122 148
-557.782412 670.926094 1773.222160 48 86 115
-560.058022 681.024361 1779.617882 53 90 116
-516.605902 547.798967 1693.432426 30 58 92
-517.976427 568.982792 1698.506546 36 66 98
-472.604132 -348.255491 1526.473904 31 73 82
-513.671112 556.886578 1690.251732 33 64 99
-522.351646 591.218376 1708.919525 36 66 94
-514.468098 561.752033 1692.501068 80 120 152
-514.468098 561.752033 1692.501068 80 120 152
-518.011904 579.107380 1700.491333 34 61 91
-523.781776 602.019024 1712.822151 38 64 92
-524.559593 597.051716 1714.146042 76 111 136
-524.151468 586.305237 1712.531662 86 119 148
-468.402815 407.960224 1598.205376 85 121 147
-525.242329 612.830973 1718.088150 48 79 108
-525.242329 612.830973 1718.088150 48 79 108
-525.548124 607.833433 1718.750191 85 119 145
-520.222139 574.668646 1706.570053 82 118 142
-485.995054 495.730257 1639.589691 61 94 115
-512.377119 542.569208 1695.747566 27 53 88
-508.868217 544.924879 1690.075684 82 119 151
-464.130020 434.442902 1601.567650 84 126 153
-459.235668 380.445409 1588.190651 166 202 217
-520.318937 597.223330 1716.935921 37 69 98
-517.775631 585.970879 1711.503029 43 74 101
-520.751095 607.627726 1719.503593 39 69 96
-441.343546 291.160393 1550.059414 105 134 151
-472.682142 441.216564 1620.029449 35 72 104
-525.567055 639.064980 1736.231613 89 130 150
-479.965830 505.822802 1644.075966 114 153 171
-462.258339 383.829069 1601.485825 49 88 119
-464.423800 391.633606 1608.683395 44 79 108
-511.934805 574.543047 1710.852432 74 114 143
-510.362244 579.117203 1708.871841 36 68 98
-511.884356 589.740801 1712.852097 43 71 98
-513.870287 600.955725 1717.654037 40 68 97
-513.870287 600.955725 1717.654037 40 68 97
-453.749895 367.364502 1589.134026 40 73 109
-466.624069 444.788265 1620.497513 42 72 105
-466.045904 430.049610 1619.016266 92 132 158
-466.045904 430.049610 1619.016266 92 132 158
-466.928720 436.751890 1624.827385 44 66 92
-466.928720 436.751890 1624.827385 44 66 92
-455.439425 394.759822 1600.777626 35 59 93
-473.774242 509.459829 1644.902229 129 165 179
-455.077219 383.385873 1599.190426 141 177 197
-455.176783 390.820575 1601.041794 71 109 138
-466.843367 442.091703 1627.342224 83 121 153
-454.262114 386.277056 1605.583191 31 59 90
-507.407904 572.478342 1719.028854 89 128 153
-512.958908 634.040356 1736.032104 97 119 141
-449.779606 371.725774 1597.876263 141 178 196
-449.779606 371.725774 1597.876263 141 178 196
-421.721554 90.178359 1521.057415 208 242 249
-506.190205 584.455204 1723.965073 82 118 147
-507.740259 605.739021 1729.873657 84 123 151
-508.173990 595.460129 1730.497360 85 124 150
-504.616022 615.240574 1727.158928 42 62 89
-444.610786 365.727878 1595.077133 44 77 110
-545.171976 728.500366 1814.353752 93 128 151
-435.584450 311.058044 1577.566051 35 62 98
-469.599104 252.177954 1633.088303 158 180 192
-471.482229 525.014162 1665.645027 48 74 97
-531.357479 672.087049 1790.853500 89 121 147
-496.185541 581.485224 1719.477844 33 49 72
-497.776461 569.298410 1721.188354 74 114 143
-463.345480 507.744408 1654.134178 51 83 112
-453.341866 427.456999 1627.991104 37 68 100
-453.341866 427.456999 1627.991104 37 68 100
-503.737164 625.311041 1739.432144 42 66 91
-533.018589 679.024267 1797.877693 49 79 110
-447.429132 414.988804 1617.382431 32 66 101
-491.341257 588.244820 1714.855385 41 58 77
-438.999319 358.730364 1598.278809 36 61 96
-434.912157 336.814713 1589.108467 35 60 96
-491.586494 548.806286 1712.684250 24 40 68
-447.793388 387.903285 1617.850876 79 116 148
-500.727797 584.934759 1735.417366 31 51 78
-497.850513 608.370924 1732.958221 98 128 152
-538.020277 728.450203 1820.263672 92 121 146
-499.933529 600.047445 1738.673019 92 130 155
-499.933529 600.047445 1738.673019 92 130 155
-424.533176 289.283872 1571.813869 69 95 129
-494.086123 586.763811 1728.147316 112 147 173
-494.002771 590.289354 1730.004120 36 64 91
-494.002771 590.289354 1730.004120 36 64 91
-420.784187 272.380614 1565.274429 145 173 186
-527.379131 682.946157 1801.433182 60 92 116
-426.770115 312.305498 1581.752872 71 101 133
-494.886589 597.461271 1734.652710 78 119 146
-531.046391 738.423681 1815.954399 83 120 146
-436.816263 357.556272 1606.921387 90 124 151
-438.363314 369.734287 1613.282013 71 110 143
-467.910767 542.920017 1687.026024 32 50 80
-523.419285 678.022337 1803.104973 40 71 100
-442.671537 393.050003 1627.439880 26 60 95
-413.460159 72.414291 1540.821648 8 123 180
-444.380760 407.676506 1633.367729 76 113 145
-425.645447 306.596637 1589.083290 74 101 131
-524.206352 688.181543 1808.502388 58 94 118
-524.206352 688.181543 1808.502388 58 94 118
-419.819021 270.071101 1575.119400 80 97 120
-442.445230 396.678066 1630.922318 90 123 156
-409.698629 203.743649 1555.456352 37 42 93
-413.080788 267.404938 1569.192600 144 169 184
-517.929792 676.167250 1804.239845 90 129 154
-489.096165 622.311592 1747.340012 50 70 94
-493.883753 632.590342 1757.745552 87 123 148
-493.415070 628.909874 1757.513237 44 66 91
-409.275007 133.871448 1551.934242 64 179 210
-456.768656 512.199116 1679.662132 78 105 131
-457.523727 516.179180 1682.321739 38 61 84
-457.523727 516.179180 1682.321739 38 61 84
-490.962934 -414.876461 1645.166588 57 126 136
-433.293486 397.451282 1626.955032 35 42 71
-523.319817 97.734517 1763.171196 182 224 238
-524.514055 756.107521 1832.481766 89 125 150
-409.352636 -241.256857 1516.872978 98 144 151
-517.698383 679.020119 1815.146065 50 79 103
-483.935595 584.343433 1744.275665 75 109 143
-449.011755 464.702129 1668.516731 90 130 161
-450.271749 486.226702 1673.164749 80 112 143
-448.070860 474.846935 1668.670273 91 125 155
-448.070860 474.846935 1668.670273 91 125 155
-406.259727 271.628475 1570.369148 41 43 81
-433.051777 439.875746 1637.892914 77 112 142
-486.255980 626.294518 1758.022690 77 115 141
-428.783035 390.742755 1627.643204 65 103 135
-447.684908 498.636198 1674.185562 37 54 81
-474.865341 568.655205 1732.463264 27 60 93
-408.699608 91.993201 1560.202503 82 183 211
-476.555157 596.799564 1740.558243 44 66 84
-447.318792 495.436764 1676.406670 48 69 100
-438.043499 448.510408 1655.235100 78 125 153
-422.851419 36.877587 1587.773132 68 90 160
-482.573271 617.641878 1761.359596 35 55 80
-400.872517 290.313458 1575.693321 60 42 95
-437.873888 448.443031 1661.873817 81 128 155
-475.797749 569.612551 1745.255280 92 132 160
-509.224653 705.701971 1822.625160 39 58 89
-440.272665 522.434282 1676.819420 94 140 163
-508.639097 678.225183 1820.666122 46 73 100
-441.188526 453.996515 1672.647858 35 74 105
-435.539341 456.781769 1662.585258 102 142 160
-484.486008 654.523087 1775.476265 37 53 78
-508.669758 688.683891 1824.825096 55 91 115
-517.288494 759.859514 1848.714828 87 123 145
-439.931774 490.222645 1676.311493 156 190 204
-474.295616 608.387232 1753.875732 42 64 91
-439.692545 479.266596 1678.298378 136 171 192
-435.141182 466.324997 1669.607925 165 198 210
-435.141182 466.324997 1669.607925 165 198 210
-458.329391 -417.527246 1618.086433 235 232 221
-441.953611 484.461594 1684.505272 35 67 97
-472.928095 584.715080 1753.633118 86 124 155
-502.613544 674.920177 1818.983650 88 122 147
-469.005013 568.790150 1745.304298 70 111 134
-415.970421 -73.293841 1584.318542 149 113 155
-434.109259 463.149166 1677.711105 34 60 88
-432.749128 492.023945 1680.228996 80 117 146
-436.706305 500.332689 1689.416122 42 72 103
-431.543350 483.743858 1679.238701 30 58 85
-429.327631 450.371075 1672.786140 51 85 120
-430.584002 456.921864 1678.470993 179 211 221
-499.914122 745.403242 1849.215317 42 69 103
-418.274832 438.354206 1661.379623 72 104 137
-515.389872 -345.305538 1762.242508 65 84 101
-495.978737 731.063986 1842.566872 94 136 159
-445.951748 -242.001891 1642.175102 96 142 160
-459.800005 579.107237 1758.195686 78 115 151
-465.541315 612.809753 1773.138428 82 104 132
-494.021702 692.157364 1837.306976 84 126 154
-466.735888 625.108862 1780.742836 90 123 152
-366.233587 179.351211 1541.334629 14 167 203
-456.188869 575.542307 1756.115150 21 53 93
-456.188869 575.542307 1756.115150 21 53 93
-420.219707 421.971941 1672.081566 42 74 110
-421.444750 448.504829 1682.357025 31 64 100
-457.521677 585.456610 1766.633987 81 119 154
-394.023156 318.916678 1618.186951 146 132 174
-422.704363 472.305155 1689.965630 138 174 189
-422.704363 472.305155 1689.965630 138 174 189
-459.460115 618.576145 1776.730156 98 134 158
-461.232090 614.674187 1780.083466 45 63 84
-461.232090 614.674187 1780.083466 45 63 84
-393.818307 -5.415121 1583.696651 148 105 147
-418.434334 476.259232 1683.715248 48 77 104
-458.799219 624.025536 1777.745438 35 63 89
-452.940845 581.046152 1762.241364 38 68 108
-458.217335 608.219147 1775.653076 87 124 148
-375.364399 60.297143 1559.237289 101 191 218
-375.364399 60.297143 1559.237289 101 191 218
-418.264151 466.011953 1686.530685 49 82 114
-413.539171 421.028519 1674.559402 35 61 97
-371.367121 63.292569 1555.042839 205 240 250
-420.866013 101.931357 1649.493408 207 243 248
-413.715029 441.857624 1680.573273 36 52 83
-394.402480 2.113857 1595.460224 194 171 202
-451.495647 611.893463 1773.325729 79 113 138
-451.495647 611.893463 1773.325729 79 113 138
-483.133841 682.509041 1842.545509 85 126 152
-413.360023 445.393276 1682.120705 105 148 172
-451.620007 608.335066 1774.528885 32 61 91
-485.235548 711.041498 1851.738358 74 113 141
-453.645754 623.740864 1782.011414 70 100 125
-449.572229 616.473293 1773.389626 31 58 86
-449.572229 616.473293 1773.389626 31 58 86
-449.943972 565.976715 1769.307899 17 30 63
-357.984614 140.242898 1544.532108 207 243 248
-448.581982 578.664494 1772.615623 76 112 141
-476.782274 677.897978 1839.790154 32 52 84
-449.594688 574.947357 1776.861763 11 25 59
-480.117226 705.125618 1850.802040 38 60 88
-410.829353 446.105194 1689.173698 100 141 165
-374.667764 204.258752 1594.409847 55 130 161
-448.778057 581.411123 1781.470871 67 99 133
-413.104630 489.355516 1703.359985 85 124 149
-413.104630 489.355516 1703.359985 85 124 149
-407.163477 414.826059 1685.292053 92 89 125
-448.724556 604.113770 1788.634491 66 96 130
-402.852726 -140.454531 1616.806793 163 129 180
-446.864939 613.749266 1786.664009 83 123 151
-374.725056 260.382915 1606.827354 45 67 102
-416.222763 504.458046 1715.665436 42 69 98
-443.206501 608.202934 1780.733299 30 53 85
-407.695532 456.676531 1695.597458 46 63 87
-445.419407 576.498556 1786.052132 67 93 130
-438.782692 559.829426 1775.549126 13 39 78
-392.721844 227.266169 1648.235130 89 160 174
-472.342157 713.956070 1859.316254 96 137 162
-371.681952 258.905363 1610.798073 47 75 98
-473.555994 720.517540 1863.104820 50 88 113
-386.876225 377.375603 1654.842949 141 123 160
-400.119019 412.952089 1687.114716 60 43 78
-438.922977 556.404161 1779.899406 81 113 148
-436.739969 -418.842077 1667.974281 78 142 152
-604.848814 906.869030 2148.834229 102 131 170
-381.198406 360.819221 1645.274734 139 132 165
-463.237572 683.500910 1845.046616 87 127 153
-380.861878 36.835128 1610.772705 61 69 135
-394.241333 406.420946 1680.219460 102 118 151
-437.772417 566.964436 1785.760117 16 39 73
-367.161608 261.748385 1611.985397 155 183 194
-371.823025 293.551731 1629.294968 73 69 104
-371.823025 293.551731 1629.294968 73 69 104
-380.706382 374.202085 1656.079483 44 61 88
-372.310400 279.876328 1629.594612 71 59 97
-371.418786 289.358020 1633.602905 158 183 199
-429.886341 558.769369 1781.484222 21 44 80
-461.925364 700.202513 1861.904526 81 118 144
-433.672810 573.427010 1792.314148 20 43 84
-370.568657 286.623693 1635.529327 46 74 106
-431.701994 556.042433 1789.663124 89 130 157
-372.423768 309.218240 1644.123268 27 55 82
-394.173789 451.193619 1703.827667 96 136 163
-375.687385 321.231008 1654.178238 33 59 89
-433.869553 -247.546220 1708.867073 177 170 186
-433.869553 -247.546220 1708.867073 177 170 186
-413.483286 -372.813010 1654.493904 26 53 72
-372.823262 325.006866 1652.385330 87 122 149
-374.640012 357.547283 1659.711075 26 52 83
-428.563261 602.688789 1796.601105 64 92 129
-369.217920 297.805309 1644.885826 39 66 96
-446.542215 686.857224 1852.524567 86 127 151
-426.632214 598.505545 1803.485298 61 89 125
-424.346542 561.059761 1797.123528 25 49 84
-386.058164 449.533224 1707.113075 38 65 99
-362.364006 284.830427 1642.704010 33 65 95
-385.921240 241.086817 1687.010193 106 148 156
-359.168863 57.610351 1612.913322 66 183 205
-390.806293 -4.682484 1672.282028 110 111 8
-451.793480 717.018604 1878.291512 98 144 166
-422.734499 571.083641 1803.333855 74 104 141
-384.173322 431.600618 1710.960007 77 118 151
-445.686102 699.984932 1869.042397 80 115 149
-372.539949 351.681280 1681.056404 112 146 166
-353.190780 270.405793 1635.013580 44 72 97
-354.748178 288.838935 1641.007805 33 66 101
-378.791189 407.362318 1704.235458 33 62 90
-385.936928 -151.435947 1656.038666 234 217 228
-395.412302 537.191868 1754.409027 95 113 139
-356.987786 284.508896 1650.016212 87 127 151
-346.935868 278.521085 1629.123116 36 60 86
-370.561647 391.276073 1691.121674 42 69 100
-376.325059 -45.056537 1654.028511 111 154 154
-373.659110 410.016251 1700.785446 89 126 148
-373.659110 410.016251 1700.785446 89 126 148
-373.659110 410.016251 1700.785446 89 126 148
-371.362162 386.906838 1696.632957 111 145 167
-377.357340 420.378637 1714.362717 34 62 92
-368.880272 381.050706 1693.353271 35 62 88
-384.959984 17.379653 1685.437775 74 76 7
-383.719158 17.234199 1683.229446 74 76 7
-392.492080 649.957323 1773.617172 51 85 118
-379.143143 598.741198 1741.983032 34 60 96
-390.811253 -222.419310 1672.852325 162 96 152
-345.848322 269.923282 1640.928841 123 142 151
-388.136911 675.197601 1775.885582 29 55 93
-344.916296 284.911203 1643.251991 87 123 149
-367.214489 415.570116 1705.915260 25 52 70
-390.285397 -218.024755 1681.788445 239 224 232
-345.816064 279.946971 1647.345352 33 50 72
-380.616355 509.579039 1750.572014 40 62 93
-344.017172 283.646441 1649.538994 31 48 68
-376.879549 499.766397 1744.379997 115 138 152
-378.160810 494.009018 1747.269058 34 63 100
-346.932864 293.603230 1660.722542 38 70 104
-366.062498 419.324923 1716.736221 133 168 180
-366.062498 419.324923 1716.736221 133 168 180
-349.299693 55.455935 1640.647697 54 55 5
-341.379499 268.272662 1648.852921 76 88 86
-392.512512 737.212753 1810.568237 31 47 90
-360.231209 393.739390 1705.198288 36 54 78
-341.379619 54.376227 1626.389694 54 55 5
-346.800089 287.963939 1666.286659 30 56 73
-343.122625 273.486948 1659.650612 135 155 160
-381.738019 32.212389 1714.154816 145 145 86
-379.996037 -16.842316 1706.565857 190 185 119
-361.248636 398.633671 1720.192719 85 121 144
-365.668678 428.981352 1733.932304 38 60 88
-335.440254 275.861859 1654.250908 123 146 154
-343.698645 296.583080 1676.516533 87 125 148
-373.048115 -13.360198 1707.389832 71 61 3
-335.982394 274.809265 1664.046478 64 73 70
-348.687315 390.245676 1707.165337 76 106 119
-352.836704 410.750055 1720.107460 37 57 83
-362.122893 -145.773530 1677.079201 224 215 215
-340.969372 310.680723 1688.966560 40 63 95
-390.247631 267.237973 1798.167229 93 113 109
-385.265064 272.884679 1788.320160 118 134 128
-346.228933 365.188670 1716.103935 164 191 200
-367.005801 -20.076226 1717.023659 57 49 4
-343.987942 369.719434 1716.510963 32 58 72
-363.853312 16.501719 1718.523598 103 104 43
-346.325779 419.249296 1747.117233 27 56 84
-363.067603 -31.898996 1731.118965 31 25 4
-343.573546 421.740437 1742.962837 152 177 187
-347.927284 430.660200 1756.017303 42 70 84
-324.371314 331.332421 1703.394318 32 65 97
-336.792231 410.245562 1743.865776 126 154 164
-320.097327 324.822140 1698.184013 100 140 158
-360.792136 -237.144923 1727.383041 172 178 185
-359.500885 -237.562394 1724.932289 172 178 185
-359.634352 -225.615191 1730.747604 120 133 152
-353.377938 11.262310 1754.625320 105 116 39
-352.956128 -36.052945 1748.641586 52 45 5
-315.655732 347.023368 1715.807724 98 141 160
-305.373836 769.360733 1746.320724 21 57 155
-354.300570 311.332440 1809.375381 88 112 123
-334.523225 -153.325927 1708.391190 14 35 22
-311.311889 341.957450 1719.905472 36 53 65
-344.516325 1131.288242 1892.477226 84 94 100
-319.806528 403.350353 1749.523163 66 104 137
-315.193653 376.835513 1738.078308 71 111 139
-345.224619 -45.420930 1759.593582 59 53 4
-352.538133 -241.059899 1755.426025 69 117 131
-313.498235 413.277054 1754.201317 66 93 126
-307.902384 452.436638 1752.733231 108 134 161
-322.131252 52.450800 1759.346390 145 169 119
-297.100163 374.414897 1753.368950 133 139 61
-212.351561 870.768452 1640.993500 35 124 163
-212.351561 870.768452 1640.993500 35 124 163
-296.988535 1148.016167 1882.236481 147 169 181
-248.330307 492.218971 1696.238327 120 117 49
-318.009496 -90.837795 1794.588852 146 154 68
-286.865020 348.644733 1777.179337 87 90 6
-313.210773 -104.726088 1786.856651 127 119 15
-287.728262 138.186204 1772.442055 68 95 30
-273.911500 1150.166988 1874.364090 145 166 181
-199.500501 873.872375 1655.578995 90 170 197
-261.901903 1147.783089 1867.644882 120 148 165
-253.500223 399.849463 1755.069733 202 201 144
-252.753520 1105.662632 1845.407104 107 122 136
-215.495729 753.421354 1718.287086 104 176 207
-242.386031 1033.949947 1843.400002 105 125 137
-250.472903 894.478798 1846.523094 10 154 202
-249.003172 -149.656618 1711.352348 56 159 184
-172.758675 853.864956 1665.403748 103 173 200
-209.842539 678.998280 1749.012375 68 107 152
-280.582666 -329.236197 1810.870171 172 181 190
-182.466030 801.070976 1726.413918 186 212 216
-188.047326 625.798893 1721.979141 41 67 80
-215.186143 1033.156300 1872.094536 26 34 47
-220.091176 -162.136555 1735.630798 113 165 182
-202.576590 1033.584690 1859.578705 79 102 117
-228.742790 -283.412242 1763.013268 189 226 239
-228.742790 -283.412242 1763.013268 189 226 239
-196.085322 309.218454 1763.267708 227 239 243
-201.239109 -27.032772 1740.144539 102 166 204
-190.100265 -179.177666 1691.162300 93 117 124
-138.857245 534.004831 1647.402191 151 163 104
-191.619301 1157.232666 1897.060013 117 144 161
-185.166228 1129.566669 1876.535797 78 87 100
-165.536487 676.365232 1758.919144 41 58 71
-192.863619 1026.684570 1889.894104 57 74 88
-131.483448 563.197231 1662.480927 134 127 24
-177.497220 1082.955551 1871.828651 77 94 107
-185.000312 140.766633 1774.157715 15 68 113
-201.384068 -332.476664 1759.334564 9 77 141
-127.055931 552.249861 1677.223587 171 191 158
-177.314603 1156.373787 1912.122917 148 174 188
-168.761134 1107.768917 1886.603546 81 97 111
-165.569520 1085.328293 1883.448410 146 173 187
-164.122021 1116.605473 1899.991226 178 204 216
-164.122021 1116.605473 1899.991226 178 204 216
-157.770705 967.522621 1873.058891 106 168 188
-154.361820 1107.034016 1919.268036 92 107 119
-146.143699 1036.074924 1895.154381 25 43 57
-149.534202 1079.934216 1912.096214 150 175 187
-150.687277 -70.988196 1750.579453 68 128 149
-153.226089 -109.933043 1753.437424 33 67 100
-154.103088 1118.622589 1939.745903 154 180 192
-146.606600 1078.344536 1926.346207 138 161 172
-141.673219 -63.865715 1740.658379 48 98 130
-141.952658 -72.934729 1744.379997 64 96 118
-130.290139 977.089119 1879.965210 19 20 36
-153.704917 1150.699043 1982.093811 167 187 199
-124.356616 52.337182 1736.525917 179 184 184
-134.828651 -94.739485 1749.331093 16 42 77
-149.448073 1144.442654 1991.141701 148 164 175
-127.255845 -58.086097 1741.057587 38 59 91
-101.814628 53.937513 1678.597641 179 184 184
-150.782096 1147.349644 2004.911232 139 155 163
-150.054443 1147.070599 2018.822098 138 154 163
-128.946960 -100.862086 1759.157753 29 62 105
-119.342256 -65.059978 1747.063828 120 157 178
-123.508954 -88.258761 1768.900681 66 95 120
-112.318087 -39.555147 1742.942619 75 102 116
-120.929265 -62.432438 1775.699425 24 52 89
-112.225938 -43.149993 1750.181770 110 136 151
-102.811825 -27.220130 1745.540237 114 145 158
-89.113462 4.492525 1715.703201 135 171 185
-67.701304 661.070776 1748.208809 78 76 11
-94.884431 -16.747345 1741.253853 42 93 129
-94.884431 -16.747345 1741.253853 42 93 129
-93.577582 -6.739619 1739.688873 114 175 193
-64.057189 758.557320 1766.267967 124 119 16
-63.839400 722.648907 1761.341476 114 114 20
-81.393307 26.609483 1715.565681 21 61 102
-73.403412 29.162899 1706.634521 42 115 153
-66.154361 31.529853 1697.117233 25 54 79
-63.880074 63.035136 1697.869492 26 50 81
-63.792205 137.488484 1711.485863 8 97 153
-68.092281 28.765938 1721.160126 58 94 112
-58.748436 128.395700 1709.070969 40 173 203
-32.016066 797.534943 1739.422035 251 252 231
-32.016066 797.534943 1739.422035 251 252 231
-41.938141 50.352055 1712.838745 74 99 117
-34.157178 66.877168 1688.561821 154 186 195
-53.341693 921.145821 1944.568253 28 54 121
-24.715739 83.316940 1699.829102 172 180 185
-38.701677 -445.108318 1681.942940 251 254 254
-20.935768 123.717141 1712.954521 175 197 202
-20.838924 110.866332 1712.306213 165 200 214
-19.789542 181.133533 1728.802299 29 69 109
-54.188049 1026.887226 2014.874077 42 77 172
-19.681206 -282.919359 1651.733589 61 102 135
-16.747692 143.761265 1720.745659 25 61 95
-14.454065 128.103495 1709.819031 51 77 99
-55.339658 981.601334 2021.391106 70 134 175
-12.878145 114.878857 1706.543922 246 239 222
-37.566820 -462.317371 1704.914284 254 254 255
-12.681757 167.497194 1718.820190 63 96 111
-11.411246 110.844350 1704.173470 116 140 154
-12.329102 177.923608 1720.298576 109 142 150
-55.783904 1098.300552 2061.263084 64 75 103
-8.576293 119.815111 1706.232452 253 244 223
-10.254081 110.971522 1719.087601 94 134 155
-44.328314 1016.344452 2020.046043 67 92 170
-3.849650 -344.303274 1621.105385 129 119 111
-5.349780 142.055368 1725.391006 164 199 210
-9.626302 -363.916254 1653.057861 141 191 204
0.651498 160.294032 1708.863449 254 253 217
-1.389054 125.746405 1713.684082 169 197 204
1.969403 169.362760 1710.622215 105 111 115
-31.649375 994.078064 2006.531906 37 63 147
-1.562825 -289.424014 1653.885078 61 88 118
-1.562825 -289.424014 1653.885078 61 88 118
5.267984 194.820929 1720.283318 47 94 124
0.637498 124.921167 1727.010155 51 104 134
6.778027 -349.981499 1619.416809 210 198 177
32.783142 550.892496 1677.707291 250 249 252
32.783142 550.892496 1677.707291 250 249 252
32.783142 550.892496 1677.707291 250 249 252
16.818823 186.262858 1710.078812 140 172 183
15.315549 176.548767 1719.938850 69 93 98
14.022090 -283.727574 1641.175079 36 42 51
21.945401 192.295539 1711.341476 114 150 165
26.395226 195.713997 1712.126160 49 77 99
23.431894 173.932040 1722.398186 89 122 136
17.812024 -316.936493 1661.784363 199 222 233
17.812024 -316.936493 1661.784363 199 222 233
30.871382 216.890049 1707.729340 136 162 176
-9.512006 -57.053250 1840.171242 17 71 126
24.724351 -313.929510 1665.714836 20 105 160
29.449004 -291.811609 1664.578247 163 186 200
-15.174541 1033.611488 2161.559105 31 54 122
50.932628 210.399199 1700.440598 28 50 75
30.285341 -156.999815 1754.709244 181 210 219
18.082438 1086.859989 2070.879745 53 67 90
73.164284 215.074992 1689.442825 29 58 86
73.164284 215.074992 1689.442825 29 58 86
71.018273 762.295055 1831.105614 135 163 165
101.234162 -114.557648 1519.674110 33 81 138
80.466324 784.041882 1831.458855 120 114 27
80.625081 204.077506 1709.890175 66 117 136
71.716982 -221.315598 1687.411308 28 84 138
93.395400 229.665279 1690.921974 27 71 99
74.982417 -136.505544 1709.523964 15 83 160
74.982417 -136.505544 1709.523964 15 83 160
70.742190 -202.985358 1728.070259 85 121 155
70.742190 -202.985358 1728.070259 85 121 155
81.818426 -364.764500 1641.622353 204 241 249
96.864170 221.069074 1693.476868 45 68 88
90.896606 758.632994 1843.504906 144 184 209
97.756219 786.119604 1826.214790 100 145 191
96.978712 821.175098 1845.408440 129 108 6
105.228209 217.308402 1693.556595 115 143 154
107.335865 238.997293 1698.864937 29 54 85
68.220985 1094.161606 2105.805588 62 135 175
99.757111 743.978500 1883.321571 105 148 181
115.069962 805.061626 1824.715614 152 161 159
44.253752 -87.676352 2015.527344 158 206 222
88.657451 -173.933804 1755.133438 140 139 184
105.449712 636.470652 1852.156258 18 33 107
113.598263 517.162991 1779.236221 18 76 128
98.999768 -362.731862 1656.556702 15 71 201
118.951893 232.330799 1691.645813 54 104 130
85.485101 -200.010848 1779.601097 54 65 140
99.443352 -301.403379 1691.158676 74 195 221
104.272699 -253.933620 1685.562325 49 122 164
86.433101 -463.849306 1741.245270 252 254 255
86.433101 -463.849306 1741.245270 252 254 255
85.444754 1068.570614 2111.092949 169 209 235
135.085690 305.344772 1651.559639 163 205 214
76.177990 1045.290089 2165.702629 136 188 207
76.177990 1045.290089 2165.702629 136 188 207
124.276209 229.038620 1701.485634 53 117 135
109.455621 -368.392038 1653.137779 236 249 251
140.335488 340.324640 1666.104317 44 81 107
99.742526 -130.001950 1812.945938 209 234 242
145.233107 382.729268 1673.321533 23 49 77
117.690766 -375.763130 1673.306847 17 17 28
138.768876 240.982270 1700.089455 23 75 110
111.624193 -213.489866 1755.415535 114 139 167
118.060482 -220.830870 1717.231369 26 75 199
148.952258 354.260898 1675.258064 104 138 153
120.092809 -218.893433 1708.993912 26 75 199
107.552993 -139.209843 1811.917877 244 251 254
143.873155 543.231630 1763.634682 65 48 161
143.873155 543.231630 1763.634682 65 48 161
149.826193 366.644669 1683.986855 137 165 173
133.488417 762.995243 1887.475967 230 236 239
150.276017 359.800410 1684.560394 63 93 110
143.892956 227.311158 1695.162010 136 177 192
143.892956 227.311158 1695.162010 136 177 192
142.110324 823.645401 1857.761955 128 151 184
151.747036 306.471086 1673.276901 32 88 108
102.542222 1058.275414 2175.462723 48 96 123
144.506621 220.218229 1703.609276 57 99 122
153.567159 340.365195 1682.921410 104 134 149
153.567159 340.365195 1682.921410 104 134 149
153.943491 304.183125 1680.675507 103 142 157
156.726074 375.465488 1682.958221 155 177 183
121.089673 -352.287006 1720.808411 4 14 39
155.974877 371.082354 1688.980103 64 98 113
157.396638 350.156474 1684.386444 136 170 177
149.136698 227.348137 1705.148888 170 201 208
156.999505 323.178744 1681.302834 39 68 89
156.981349 345.239186 1688.202095 44 75 96
123.387587 -341.228080 1733.335686 63 116 152
139.479339 643.740606 1885.885048 41 58 130
158.259726 331.056285 1686.963272 100 132 146
159.746563 380.289769 1691.827202 141 159 164
154.565001 233.802557 1696.548462 68 110 132
162.860072 322.138119 1686.292648 145 173 183
165.394950 386.912608 1699.432945 150 169 172
161.990368 253.912568 1690.023994 149 169 171
131.596088 -369.768858 1725.529099 28 124 168
131.596088 -369.768858 1725.529099 28 124 168
166.774821 355.532098 1692.296600 115 149 157
160.633159 226.400518 1701.768875 231 252 252
147.424424 668.664360 1908.400154 122 143 172
167.798626 347.619343 1696.060371 73 101 117
151.160371 646.848297 1890.158653 40 61 131
169.261885 334.818077 1693.549538 96 129 145
170.218372 521.220732 1737.300682 32 58 87
171.483076 387.174416 1696.458244 80 106 120
173.092866 411.715555 1695.746613 32 121 157
169.812679 322.485614 1698.400688 107 141 157
169.076371 257.486200 1688.230515 71 101 109
168.169534 247.164679 1694.379044 55 93 109
139.758337 -340.596151 1727.519226 64 75 85
171.818316 327.249718 1694.297218 67 95 110
136.559212 -362.060714 1747.541237 62 74 91
174.616480 358.706951 1688.493729 60 84 103
171.857262 280.997300 1686.681175 87 128 136
173.923254 514.698839 1738.009071 35 57 90
162.906706 218.683815 1732.946587 138 200 211
171.368051 250.447798 1684.495163 193 199 194
173.078191 317.469001 1696.940804 55 88 108
139.807034 -371.449113 1736.611938 202 243 248
139.831948 -371.479988 1736.499405 202 243 248
173.981571 344.281316 1700.968933 114 136 147
142.748642 -404.505014 1709.682274 25 34 43
176.003182 338.809156 1694.960594 33 54 75
177.975452 352.283645 1687.876320 114 134 144
120.219183 -157.757020 1948.418999 11 61 108
176.283228 308.861470 1691.255951 70 107 127
178.010488 376.257992 1702.746010 162 190 197
180.756176 408.261442 1694.613838 82 116 133
180.954099 417.028952 1704.292870 20 47 81
178.733766 337.163401 1699.971199 102 128 142
178.733766 337.163401 1699.971199 102 128 142
146.938765 -410.667372 1714.117622 229 228 216
180.677354 394.054842 1704.323769 54 82 103
140.422916 113.619363 1906.754875 11 91 139
170.517981 821.298885 1896.428299 118 118 44
143.638003 -360.297418 1754.060936 44 49 63
176.112008 277.275801 1710.158920 42 85 106
180.411315 371.592808 1707.210732 36 63 89
177.905965 280.127954 1699.926949 153 192 196
183.413291 429.434013 1705.628204 33 117 151
181.572270 379.084563 1704.725266 55 85 102
181.878769 331.127214 1696.818542 79 106 116
182.682049 342.425895 1698.488045 143 162 170
184.230256 384.117246 1703.158760 123 148 157
185.626793 346.193504 1689.459801 111 131 138
184.372139 377.303457 1708.434105 51 78 98
184.181643 338.127685 1699.001694 40 56 74
186.630821 380.163646 1704.219246 124 146 155
185.863245 314.002013 1697.178841 30 49 67
151.488352 -347.085094 1756.208801 204 212 217
139.705336 -133.887899 1913.880348 17 70 120
188.644302 377.530050 1706.396675 105 126 138
189.481342 470.532894 1736.285400 81 118 143
154.988122 -353.610635 1768.490410 48 139 172
191.253626 310.350823 1695.761490 134 154 159
191.253626 310.350823 1695.761490 134 154 159
191.253626 310.350823 1695.761490 134 154 159
183.967221 210.479355 1723.584747 61 104 127
142.964506 -169.370174 1920.095444 17 36 70
193.227923 320.801687 1704.443359 24 42 59
197.147536 416.289616 1707.798386 127 153 162
196.751535 403.868055 1713.736153 74 106 129
192.701542 256.074524 1702.945137 44 93 109
197.289598 471.960926 1733.823776 46 80 104
196.084893 316.142750 1698.250771 15 36 50
196.084893 316.142750 1698.250771 15 36 50
182.033825 653.698635 1906.744385 24 38 106
198.146427 477.697086 1733.637619 105 139 154
194.147241 286.447430 1714.514160 30 72 97
180.247521 678.857803 1946.415901 122 152 192
165.872324 -408.969688 1730.335617 12 18 28
195.795751 249.898076 1711.173630 72 102 114
195.795751 249.898076 1711.173630 72 102 114
164.576304 -322.012734 1778.696060 113 207 232
164.576304 -322.012734 1778.696060 113 207 232
200.876951 293.197465 1700.782013 160 183 187
199.582481 254.630876 1709.457588 134 168 175
196.865094 240.815139 1728.352356 31 63 87
205.050087 461.043262 1738.956833 38 56 83
159.553003 -21.545400 1954.873085 69 171 200
203.712726 303.610992 1707.872391 28 51 78
203.731990 316.526842 1714.035416 168 193 201
207.709718 452.330732 1729.336739 32 57 84
208.128929 403.915834 1712.700272 34 52 76
203.029752 287.826800 1718.369675 26 58 87
195.766437 211.658883 1759.626007 122 198 212
160.054672 -149.619091 1934.135056 177 217 222
206.238508 313.305283 1714.951324 83 119 134
191.555870 678.866529 1948.188210 26 52 131
203.630280 240.273619 1726.928711 138 164 165
207.645655 274.327874 1709.674454 28 53 79
212.211394 403.838587 1721.087837 10 16 34
209.466624 310.717392 1714.183998 128 162 174
209.655070 315.323472 1719.130516 74 108 123
209.655070 315.323472 1719.130516 74 108 123
209.311581 320.849109 1724.960709 152 178 185
213.073802 449.816036 1737.300491 129 169 177
213.073802 449.816036 1737.300491 129 169 177
209.761071 325.116539 1727.570915 85 105 111
215.194988 433.097649 1719.692039 38 59 81
215.156341 351.913977 1695.042992 234 230 203
197.725368 696.106243 1949.604034 130 160 189
214.546275 368.740296 1713.487625 159 188 184
215.195942 380.488181 1729.628181 48 76 95
216.102600 382.948160 1724.479866 81 116 134
211.746502 252.252746 1723.029518 167 186 192
218.351984 412.854195 1728.928947 50 81 102
218.356991 417.481279 1730.441856 150 177 184
219.128990 448.175526 1739.782715 25 45 67
218.822742 326.996183 1728.207207 98 114 121
174.015188 -148.300540 1958.917618 45 109 157
219.338226 314.588761 1725.053215 77 104 117
179.595602 -100.553274 1933.143234 28 59 92
223.297167 531.606054 1772.058296 82 117 140
181.349170 -119.390357 1949.275017 149 161 159
223.547220 320.716500 1731.687164 74 98 106
223.547220 320.716500 1731.687164 74 98 106
227.530313 539.889717 1779.795837 44 76 105
224.710464 316.716647 1729.563141 133 159 166
229.392672 411.389637 1730.772972 47 85 101
232.223797 423.339081 1710.752296 164 191 196
229.421282 416.413403 1734.918213 169 195 202
229.421282 416.413403 1734.918213 169 195 202
192.262638 -12.705636 1921.599960 12 98 154
227.282786 311.167240 1722.189713 69 96 112
187.912166 -75.304365 1944.334221 30 60 83
226.070213 267.402959 1723.156166 144 185 190
230.363345 541.915369 1781.631088 47 74 108
231.072974 481.414604 1755.019760 36 62 87
187.867618 -105.178499 1942.241287 166 208 216
232.287860 479.086876 1757.947731 113 146 165
232.863617 414.982128 1732.596779 153 182 189
231.211472 365.178514 1733.664894 133 160 167
233.477330 412.092352 1734.848785 152 182 192
232.040524 361.409187 1733.335686 43 77 101
234.850097 434.088802 1734.312630 43 72 98
207.810402 124.698162 1876.239777 34 87 128
234.412622 474.046135 1756.341362 73 112 127
211.144090 100.199783 1867.671013 45 114 141
234.340525 318.704915 1731.152344 93 118 128
209.555745 59.737009 1871.004295 40 149 181
234.539557 314.514899 1734.235954 170 191 197
220.577550 187.427628 1821.286583 37 102 138
184.550858 -174.390507 2032.668877 233 236 246
237.934756 410.410929 1742.568588 115 146 161
238.802004 369.339657 1721.142006 160 186 193
219.863653 170.767283 1829.724121 42 78 104
226.132512 202.611971 1784.312057 47 93 116
201.735902 -43.492949 1931.910515 79 165 192
238.432693 337.510467 1730.374718 41 55 77
215.358901 102.008355 1865.974236 169 196 206
239.398265 364.655399 1733.115005 42 78 102
218.517518 139.494801 1851.160431 242 237 225
217.745352 127.122307 1859.827042 178 182 179
228.796315 194.374740 1782.479858 48 90 112
239.317727 322.075653 1731.885147 159 195 206
241.580582 454.500914 1759.257698 41 81 112
237.161899 258.500791 1732.133293 124 185 204
207.931972 -36.153305 1921.282578 46 82 110
243.335986 460.645294 1764.601898 100 161 186
204.447341 -265.981555 1877.757072 128 197 214
240.519667 308.784795 1741.070557 51 76 94
240.626192 273.951936 1727.709389 135 170 182
220.616221 94.609118 1857.475662 76 100 113
219.556737 69.195640 1869.426727 33 92 133
241.766286 298.422289 1737.165833 134 166 177
241.964984 316.241193 1746.817207 142 167 173
216.598105 4.019957 1886.677933 27 96 123
244.616866 302.157998 1744.769287 40 70 91
231.434703 171.784401 1828.643608 136 178 191
231.434703 171.784401 1828.643608 136 178 191
245.244908 306.830740 1742.930412 149 172 181
221.109033 36.775398 1883.251953 96 180 202
216.346741 -7.204671 1917.326355 52 149 182
245.612097 271.323752 1732.838440 137 171 183
246.090221 295.173120 1743.882370 71 104 122
251.146293 384.789014 1732.254410 134 162 172
222.915268 8.873974 1883.484840 158 198 211
250.474381 353.911591 1740.396500 18 36 65
248.046350 299.635792 1746.461487 124 157 169
251.534486 341.591096 1731.128883 161 202 211
252.807593 407.682943 1744.174194 133 178 189
222.314334 -2.679878 1898.364639 68 104 121
222.314334 -2.679878 1898.364639 68 104 121
219.426012 -30.592424 1918.746567 172 199 209
219.426012 -30.592424 1918.746567 172 199 209
253.049016 404.435825 1743.836594 80 117 129
253.049016 404.435825 1743.836594 80 117 129
252.857637 394.175577 1744.981575 40 64 86
252.857637 394.175577 1744.981575 40 64 86
253.758788 418.135214 1745.330429 39 109 141
225.963283 20.394832 1879.878807 15 51 87
229.843998 50.753486 1857.603455 126 156 171
232.931423 137.683213 1862.157440 236 234 221
249.588227 294.111872 1754.830170 94 126 146
250.974059 324.114037 1752.657700 52 85 102
235.904813 161.166334 1853.496742 149 169 174
244.592261 200.445151 1780.649567 134 174 187
206.894374 -286.434054 1983.635902 114 201 223
234.623551 130.849910 1861.925697 107 126 136
255.851150 384.945130 1741.052055 149 178 188
235.478163 97.061139 1846.289253 123 127 128
252.761579 274.070311 1737.763405 112 159 172
256.962562 398.959899 1748.434448 135 162 172
225.249648 -15.201837 1921.892357 45 87 126
236.266637 112.408578 1863.569832 200 204 196
255.097270 270.528555 1741.818237 91 137 152
243.557739 172.735381 1827.679062 152 183 192
204.240561 -201.415300 2102.904701 184 177 228
259.461188 380.526614 1745.873642 144 173 184
233.268714 9.510551 1886.804581 154 167 169
232.903457 4.839144 1894.186783 161 171 172
256.947684 307.078004 1762.126732 110 151 167
261.714721 395.244193 1760.786629 137 159 164
246.926260 168.401349 1833.198929 81 103 113
260.722589 352.195644 1760.855293 142 168 178
260.722589 352.195644 1760.855293 142 168 178
238.789678 48.584238 1891.470337 167 185 193
243.621278 78.749967 1867.090225 90 104 108
262.838507 342.959452 1765.317917 149 180 192
245.846343 129.549837 1874.591255 61 149 173
264.393830 356.663013 1762.583923 145 168 180
266.319394 395.535421 1762.687683 71 97 107
264.895368 351.917577 1761.033821 69 98 113
232.037592 13.792443 2000.429344 18 80 163
224.379921 -251.099896 1989.087296 126 153 156
246.294928 56.636012 1869.670868 128 159 178
267.845654 364.989543 1758.196640 138 167 181
217.707157 -373.197079 2024.390793 171 180 193
267.744875 358.767200 1762.542343 63 91 109
265.903091 325.686502 1769.678307 143 177 189
245.142055 70.409483 1909.334564 107 191 213
267.840314 356.281781 1773.052597 113 144 156
270.650220 370.884609 1765.253830 65 96 111
271.197343 413.922167 1779.173088 52 160 191
222.582531 -223.970413 2090.438461 46 63 151
271.218109 347.770143 1772.506142 123 150 164
272.631073 358.649373 1770.198822 155 177 181
272.856355 362.749219 1770.265770 36 64 82
274.858522 410.379124 1773.348618 56 155 186
272.611713 339.907098 1777.131271 116 148 161
272.272015 323.530436 1774.507141 108 141 156
273.662210 351.417971 1772.678566 64 94 109
265.857172 262.056375 1890.710068 136 204 214
265.857172 262.056375 1890.710068 136 204 214
278.115797 340.567231 1773.913383 56 84 102
279.418635 345.842171 1772.069740 152 178 186
317.099071 1307.224655 1786.778069 228 219 215
275.254059 498.034811 1947.284126 72 157 199
264.420462 202.344441 1964.600372 51 122 156
280.223680 887.213802 2114.402199 205 200 191
257.332230 76.984721 2031.152916 61 138 207
287.745786 361.846757 1769.636536 57 108 131
291.592050 370.120692 1773.433685 25 98 131
289.017844 308.685780 1779.812050 75 117 132
292.935514 321.225977 1773.693848 120 151 162
286.182857 876.641560 2207.289886 63 86 91
290.458751 733.010197 2100.057220 168 185 90
333.018374 1305.081272 1802.276802 229 223 218
294.576931 736.983490 2168.316841 61 76 62
339.549685 1309.057522 1790.866852 169 155 157
339.282870 1304.911804 1797.687721 158 147 150
294.320178 641.390085 2175.026321 56 83 79
307.255459 758.539820 2206.973076 57 78 70
275.008607 -301.124811 2136.015320 206 171 209
320.617008 798.357868 2075.228691 158 156 95
310.150886 637.975645 2191.752625 15 23 22
314.625692 747.299623 2190.284538 49 76 64
315.821552 760.043669 2202.479553 98 136 151
289.614272 -222.329307 2104.447937 172 147 189
328.033948 785.806036 2203.355217 98 137 155
323.808789 522.362423 2131.295395 37 49 75
328.079581 546.601725 2078.758430 45 70 93
301.440430 -167.571962 2122.816277 204 185 218
323.866057 468.586683 2155.429077 174 195 220
326.537251 512.088442 2149.545288 111 143 163
328.098631 502.748966 2151.237106 122 152 172
325.768757 458.657742 2171.352768 152 172 190
306.602025 -141.012144 2128.683853 193 175 209
372.317386 1309.175587 1819.060707 222 211 205
331.753016 492.520380 2157.024765 116 149 167
320.258617 96.774179 2124.786568 40 98 160
294.791722 -383.211899 2352.568245 170 179 192
321.676588 93.885487 2110.839653 40 98 160
333.857369 484.761810 2164.999199 128 157 174
342.776489 742.809105 2195.066643 33 44 41
342.894483 740.840340 2200.875092 30 40 39
335.117960 449.857140 2163.907814 153 173 183
334.900045 427.821064 2155.689812 35 62 98
345.584035 733.113003 2198.207474 75 101 117
334.794617 406.945992 2205.253220 94 127 145
382.851696 1336.251926 1863.181114 62 43 44
354.435730 819.837761 2235.345650 94 136 159
320.505524 -272.552705 2141.974449 203 160 193
344.115067 393.969297 2208.553123 34 54 92
346.602440 432.016230 2184.310150 45 78 122
358.275199 781.081200 2211.626625 128 160 183
346.385074 414.257288 2203.563499 125 150 167
358.234572 729.450178 2195.886993 174 200 214
353.136134 582.476711 2215.124130 79 107 131
352.173781 487.373161 2190.162277 160 185 195
334.981823 -130.340481 2145.416832 193 155 192
339.889431 -105.868447 2131.015015 195 156 200
369.518161 939.562225 2393.931198 99 130 134
363.448119 583.043861 2210.796165 71 95 121
364.287639 591.034174 2190.415382 66 127 139
357.026243 401.888514 2216.774368 102 135 158
361.325979 505.909348 2190.832329 132 168 183
376.721931 788.717842 2226.482201 45 60 79
367.727780 482.524967 2186.892509 142 175 191
372.541070 610.068893 2194.914246 24 72 90
347.793245 -240.918708 2138.285065 89 48 110
374.646068 550.145674 2162.948608 27 47 68
372.407842 478.370905 2202.111816 151 182 198
384.759378 794.770384 2234.871292 99 137 160
374.051404 466.039562 2212.440109 136 165 180
386.103344 804.710102 2243.784714 59 83 107
377.535486 501.078272 2196.941376 141 169 183
370.000863 228.517532 2144.220161 141 204 225
386.803102 736.350012 2230.050659 139 164 180
386.803102 736.350012 2230.050659 139 164 180
384.098792 590.344429 2208.797455 116 132 140
380.652261 423.119307 2222.238922 67 95 120
380.345654 399.376082 2235.721588 160 186 197
389.552188 583.748293 2200.320244 87 106 116
396.617365 814.454365 2260.047531 39 56 78
389.400339 585.273886 2228.406906 161 183 191
386.601639 488.083029 2194.314003 142 166 177
388.378572 541.715097 2201.872063 126 150 162
362.663078 -257.603598 2144.957924 201 173 202
390.236354 555.331373 2187.257385 126 157 172
362.813449 -270.075822 2143.681908 215 188 216
397.076273 760.751247 2220.999336 53 77 103
379.033732 145.855677 2135.668182 60 108 167
379.033732 145.855677 2135.668182 60 108 167
379.773569 147.354221 2124.576569 60 108 167
388.143492 420.524836 2214.877892 61 91 110
401.113939 809.974289 2254.737091 40 63 84
391.813755 504.295015 2199.561119 119 162 179
367.842507 -228.380966 2134.134865 194 148 186
424.361277 1310.139561 1864.177895 222 218 214
403.186226 814.282990 2254.795456 115 150 168
399.763656 666.822720 2201.729584 100 133 136
393.167973 455.169964 2201.270103 137 169 184
370.125151 -267.655492 2108.490372 145 98 130
408.232355 852.618504 2289.604950 49 59 81
404.044867 673.993540 2193.176842 46 68 88
404.044867 673.993540 2193.176842 46 68 88
396.401548 373.642874 2216.501617 57 149 181
402.494287 495.755434 2211.182785 129 154 165
405.743217 579.912567 2241.628456 160 170 168
409.170580 642.031717 2211.602783 92 143 149
437.384987 1308.542728 1867.133904 150 142 143
408.290815 475.417376 2220.412445 49 77 108
419.405985 761.909819 2242.986488 56 77 98
402.061605 182.693636 2134.609413 243 249 252
416.262960 578.015995 2253.707504 70 81 91
408.025169 222.443986 2129.620171 217 245 251
427.761030 779.453516 2254.042435 95 118 141
427.761030 779.453516 2254.042435 95 118 141
418.305159 434.876728 2239.735603 43 63 83
429.864645 769.956255 2248.817444 58 73 91
421.779108 466.428804 2269.598770 51 77 107
392.980266 -456.752729 2242.596626 95 128 136
424.902391 405.554962 2237.016487 38 59 71
453.070879 1305.279827 1835.943604 177 174 176
429.218960 508.614111 2238.491631 84 112 130
438.484287 709.654617 2221.582031 48 61 82
432.542372 239.849639 2136.150742 24 129 172
449.264717 697.464085 2256.290054 38 78 93
452.383184 734.968567 2248.817253 91 111 132
436.183596 279.860973 2150.972176 23 130 174
443.669415 467.739582 2247.308540 48 84 120
449.514294 582.344532 2267.667770 146 164 175
458.559561 801.235294 2303.736687 64 85 105
450.192690 501.871347 2261.956787 128 161 174
460.137129 602.043104 2238.371468 107 158 162
458.412886 504.308605 2281.394005 128 164 182
461.187458 527.014112 2247.138405 117 152 169
431.431723 -383.967972 2205.146790 117 151 152
464.101458 573.699760 2245.247459 148 168 178
467.167807 596.692181 2234.442711 47 102 113
435.531998 -360.641003 2198.383522 224 232 219
435.531998 -360.641003 2198.383522 224 232 219
439.213371 -425.659418 2245.458031 98 129 132
468.617344 473.407793 2250.497246 38 64 92
477.681398 563.299322 2287.554741 48 72 105
476.241302 512.403297 2254.932785 149 172 185
495.441294 1298.734093 1950.973701 115 106 116
455.942202 -387.309957 2217.495346 75 134 144
509.593153 1375.980377 1948.402023 192 183 179
477.429485 -324.897671 2263.501358 156 164 160
518.316507 1299.325466 1972.013664 230 223 220
560.974360 1289.221382 2009.309769 241 232 228
571.570015 1284.593391 2021.801949 71 56 63
572.379303 1267.253399 1929.878616 231 226 223
481.409836 637.777853 870.733547 233 228 226
601.694059 1329.695797 1959.918594 62 68 103
622.954702 1276.673126 2078.047371 176 167 178
629.326391 1282.667160 2112.499237 119 102 109
627.781296 1334.268284 1983.761024 191 179 179
643.004894 1392.333221 2015.452385 85 96 131
638.972330 1354.470348 1972.484589 74 114 153
642.212915 1391.688347 1982.897377 104 103 138
650.812054 1276.972866 2094.038963 234 229 224
655.851650 1396.295357 2028.470421 103 105 133
656.521797 1387.858295 2020.919800 187 182 180
652.310371 1388.676739 1952.491951 99 95 134
673.344994 1292.280960 2161.678696 88 73 78
521.156597 674.486113 946.884060 170 163 164
661.046553 1389.495659 2015.142059 200 194 191
671.381140 1278.645706 2063.075829 229 225 220
667.650032 1390.379333 1992.153358 102 103 129
676.309347 1375.179768 2046.917152 187 182 181
679.978466 1371.243763 2051.907730 97 91 123
678.183079 1232.396889 2048.464966 138 122 125
678.183079 1232.396889 2048.464966 138 122 125
684.935236 1390.016651 2062.415695 167 169 175
693.831825 1393.012238 2060.553551 83 88 129
683.731842 1390.147686 1976.494026 217 207 199
700.762939 1361.937618 2036.762047 93 96 140
723.521328 1273.782539 2196.389008 80 63 66
715.658712 1309.049892 2130.227470 153 145 148
701.394606 1384.256363 2004.754448 134 124 143
720.572853 1363.675690 2131.295395 102 95 110
722.273779 1385.267735 2107.936478 188 183 182
721.773720 1313.379002 2104.088783 127 120 121
711.751795 1394.058609 1995.516396 113 108 138
724.034357 1265.178013 2107.148361 228 224 219
737.129974 1270.155239 2173.167801 202 192 194
732.265759 1386.481762 2114.437675 174 171 174
724.792528 1386.017513 2057.560349 126 115 133
728.173065 1383.960915 2057.305717 216 206 200
734.464025 1385.457993 2066.481972 217 206 199
736.807823 1385.860062 2050.232506 214 205 196
763.745499 1251.967907 2242.895508 149 141 143
746.424770 1384.279346 2103.004456 88 92 133
735.964680 1388.662434 2029.856873 109 111 149
737.750959 1325.122166 2052.225876 189 184 183
765.178442 1262.677860 2222.031212 224 217 214
773.275471 1370.025158 2237.927437 83 78 89
760.241556 1375.866985 2148.632622 87 85 123
772.725964 1265.837860 2244.346046 73 55 53
769.258642 1376.958370 2170.688820 157 155 169
749.996042 1393.191719 2034.998703 80 96 139
749.996042 1393.191719 2034.998703 80 96 139
769.808197 1379.193687 2158.432770 85 91 135
749.977493 1397.305775 2014.227486 215 204 199
764.223433 1384.134197 2103.051567 216 207 203
772.404909 1375.632000 2133.117676 211 202 198
776.193714 1376.793766 2142.613411 121 114 136
781.198931 1358.312035 2151.407814 187 183 183
781.936932 1375.972939 2143.387032 199 195 197
785.488510 1391.860962 2142.900848 210 204 200
764.449787 1407.948208 2012.791252 206 210 215
764.449787 1407.948208 2012.791252 206 210 215
789.345837 1373.119450 2164.196396 75 99 132
786.035824 1345.731258 2147.274017 80 109 140
785.926056 1345.147610 2146.375084 80 109 140
769.220972 1397.890377 2036.872864 224 214 211
