ply
            format ascii 1.0
            element vertex 5413
            property float x
            property float y
            property float z
            property uchar blue
            property uchar green
            property uchar red
            end_header
-453.207588 -325.854993 1681.894302 74 56 73
-450.552654 -260.389519 1674.641228 118 107 130
-447.421980 -203.808618 1671.120071 64 46 61
-431.481266 205.437827 1608.006287 69 54 66
-448.219299 -254.679012 1672.153854 129 111 133
-437.678623 -170.630014 1653.884315 72 59 72
-437.678623 -170.630014 1653.884315 72 59 72
-423.535967 165.197790 1603.770065 45 26 19
-433.049536 -158.751547 1651.264572 58 46 57
-415.898037 260.647917 1588.476372 59 47 58
-415.898037 260.647917 1588.476372 59 47 58
-429.774427 -136.660409 1640.030479 140 124 137
-418.132591 176.264417 1596.778488 243 174 157
-418.132591 176.264417 1596.778488 243 174 157
-418.132591 176.264417 1596.778488 243 174 157
-418.724585 159.349775 1598.937702 252 182 166
-422.856283 33.566213 1617.321587 67 54 68
-430.965805 -262.768722 1653.704834 119 99 122
-425.802088 -196.291029 1648.870087 82 75 97
-416.175079 17.424403 1612.323761 56 43 51
-404.915857 293.848157 1577.643490 58 45 59
-409.550381 144.422245 1593.776798 45 24 17
-407.953930 186.034119 1585.451126 108 85 100
-404.772711 257.983160 1575.551414 67 53 58
-420.451307 -205.438137 1639.650154 54 46 60
-406.083822 137.524295 1593.902016 109 91 105
-409.755564 15.707310 1605.203629 85 63 82
-410.250521 -89.527804 1616.395760 131 106 120
-404.626751 15.239622 1603.648758 83 63 80
-405.950022 -89.092946 1611.181259 135 109 128
-392.671204 336.369658 1529.862213 41 37 36
-392.671204 336.369658 1529.862213 41 37 36
-402.889872 -19.497885 1599.394131 131 109 131
-396.841979 59.314692 1589.368248 65 53 66
-396.841979 59.314692 1589.368248 65 53 66
-387.654495 198.468554 1565.569878 59 48 58
-389.721179 11.235338 1588.590527 46 35 42
-389.721179 11.235338 1588.590527 46 35 42
-382.019305 223.727512 1556.461334 54 41 50
-384.092593 136.409819 1567.177391 73 57 57
-389.033914 -28.388077 1589.532757 136 109 128
-389.941859 -90.679073 1592.605305 133 108 124
-385.633230 11.825211 1582.491779 47 38 46
-385.633230 11.825211 1582.491779 47 38 46
-388.850927 -95.949191 1594.202614 57 46 54
-395.027161 -307.802916 1628.910446 67 52 59
-384.564924 -59.747100 1587.441540 129 107 131
-377.700830 128.363872 1562.744904 53 43 54
-419.032717 276.449013 1112.875366 44 36 69
-372.400379 101.180458 1560.429192 50 42 53
-372.400379 101.180458 1560.429192 50 42 53
-380.414367 -267.593455 1603.261757 64 56 77
-413.370323 275.519109 1107.002354 43 38 69
-370.039940 -65.966898 1573.707008 49 43 60
-369.751048 -66.025847 1574.758625 49 43 60
-368.439698 -29.311943 1568.515015 77 53 66
-408.882284 270.966172 1106.481934 127 105 153
-372.901511 -306.036043 1603.121948 56 46 64
-373.515153 168.828249 1411.552429 37 29 39
-407.705784 274.917650 1101.011467 41 35 67
-355.847073 158.356774 1536.089897 112 93 108
-359.784079 8.681013 1558.736801 65 50 64
-362.338781 -94.986683 1568.632030 142 117 130
-401.406288 251.855135 1113.144875 60 45 86
-363.886952 163.188493 1398.268795 37 32 47
-360.934401 186.287248 1396.802139 48 37 69
-355.033636 -175.043869 1566.444969 108 96 122
-356.314898 -224.827886 1570.763397 83 71 88
-355.269670 -307.259846 1582.419872 50 41 59
-395.390272 266.923833 1099.032974 89 75 112
-395.390272 266.923833 1099.032974 89 75 112
-346.132112 -22.386035 1543.670177 89 64 71
-346.267629 -29.822728 1544.445896 46 37 50
-340.727854 -32.441545 1539.203167 61 53 72
-333.345532 90.607160 1526.522923 100 89 121
-332.352996 94.430715 1517.536259 61 49 67
-332.189250 -165.828550 1543.170452 134 114 126
-331.569338 -169.460869 1544.480133 62 53 59
-334.949183 -307.857490 1559.684467 74 63 82
-325.852656 -104.809964 1532.678127 60 47 65
-327.352548 -178.169274 1539.761543 126 111 131
-329.367948 -330.145335 1558.753204 78 60 77
-324.296236 60.088003 1433.065224 22 22 46
-429.854488 -13.657299 935.206032 30 25 50
-317.289281 -105.877972 1521.643734 60 46 58
-317.289281 -105.877972 1521.643734 60 46 58
-317.925549 -138.778460 1525.419998 123 104 121
-328.308105 179.747415 1361.946487 43 37 64
-371.767235 248.417330 1081.533623 66 51 94
-325.568128 182.642758 1359.315205 53 43 77
-325.568128 182.642758 1359.315205 53 43 77
-312.102675 -106.231427 1514.754105 69 52 62
-308.691406 -35.689351 1508.019352 82 62 81
-369.491673 222.785115 1081.589031 48 36 68
-309.706688 -142.110062 1518.672085 68 51 70
-310.050201 -228.577876 1524.462509 135 118 133
-366.421056 263.504243 1069.053555 90 72 108
-319.026446 182.710397 1353.915787 42 34 59
-306.117463 -231.361914 1522.053623 64 54 67
-362.932539 222.227240 1076.040459 60 44 74
-360.810876 246.974802 1069.678116 58 44 85
-297.632957 -189.015579 1511.495972 55 44 62
-295.928001 -170.545852 1500.030327 65 54 69
-287.835121 84.645230 1419.406033 31 27 58
-284.063387 -313.432002 1511.001110 66 54 66
-295.075965 162.229669 1335.014057 42 39 47
-297.877717 202.485418 1308.373928 61 55 89
-297.877717 202.485418 1308.373928 61 55 89
-275.806379 -142.178762 1481.457996 70 57 82
-275.806379 -142.178762 1481.457996 70 57 82
-344.180512 228.229594 1051.962662 56 42 76
-269.157815 -108.597684 1474.861336 64 51 66
-272.176361 110.825503 1400.510311 38 30 59
-272.246361 -316.198134 1498.169136 44 33 49
-269.506574 -199.110711 1482.082367 81 52 63
-268.626189 -192.822182 1482.148647 87 59 70
-283.335781 -158.149779 1369.887257 86 76 132
-283.058167 -160.732341 1368.680000 45 33 86
-256.576514 -109.032869 1461.013412 57 44 59
-256.576514 -109.032869 1461.013412 57 44 59
-279.145169 -155.628157 1371.584702 23 21 54
-279.776835 -161.473453 1369.507694 102 91 146
-260.210443 109.618413 1391.354561 34 26 59
-261.368871 66.393882 1390.487957 35 27 55
-275.839424 199.086034 1285.296917 65 57 80
-270.596409 -142.686617 1376.996040 64 56 103
-255.244017 70.357794 1388.555050 39 29 57
-251.668191 -240.518785 1467.305565 73 65 88
-337.063146 282.705569 987.164497 93 78 76
-252.518749 23.250306 1391.018963 37 27 57
-252.377725 23.281081 1391.340542 37 27 57
-273.999238 362.973666 1182.949734 51 35 44
-403.801394 84.355050 718.933153 42 35 57
-238.348722 -320.290780 1462.484264 86 63 79
-243.017364 56.371766 1357.690811 52 39 80
-238.058233 93.352753 1367.528248 41 31 60
-252.222133 174.160135 1282.383537 59 45 82
-234.172964 71.387804 1368.053341 21 22 61
-233.813047 71.294779 1368.842793 21 22 61
-314.663529 257.527423 1014.891911 92 74 105
-230.837750 -319.845295 1453.102493 85 65 85
-233.720422 12.419027 1372.413540 45 40 81
-236.638784 -19.872752 1366.090775 82 70 123
-318.996668 288.555932 983.473206 141 120 111
-311.462569 224.647355 1021.045876 68 49 85
-241.819429 141.699171 1298.108959 61 53 91
-224.252439 -317.791748 1445.623207 137 113 132
-243.881941 196.118295 1252.715874 65 54 77
-218.598413 -321.823502 1438.503456 70 53 75
-218.598413 -321.823502 1438.503456 70 53 75
-219.956255 102.710879 1348.672009 36 32 58
-214.287710 -321.681929 1437.796783 141 117 131
-215.607047 -102.174568 1362.937260 33 26 53
-298.192406 255.530572 997.180748 92 78 120
-218.396354 121.387374 1299.558449 115 99 152
-215.490150 -70.961273 1342.251587 35 32 67
-237.973237 -257.917547 1295.355988 107 94 144
-228.102493 -185.568964 1315.975380 28 26 60
-228.823709 -168.759894 1308.224678 86 69 119
-294.203520 240.137815 1000.513649 72 56 103
-294.203520 240.137815 1000.513649 72 56 103
-226.170158 -196.537137 1314.837360 79 68 115
-225.721574 -162.998724 1304.059696 32 28 64
-223.985672 -172.643745 1307.248688 33 24 51
-222.963357 -299.147248 1333.181190 56 43 103
-220.903993 151.283145 1255.212212 60 45 76
-292.194200 222.085261 998.291397 66 50 83
-291.329694 213.829732 1000.504208 63 46 83
-339.223003 33.287537 867.611790 40 30 68
-208.800125 52.080566 1304.955387 38 30 60
-339.249992 13.236026 868.197536 38 28 62
-218.173289 -153.243637 1305.417919 41 36 72
-218.231440 -171.617103 1294.905281 44 34 66
-200.768018 83.585101 1294.018269 34 25 61
-284.742188 221.738291 993.452358 69 52 93
-200.408649 102.142918 1291.317749 38 27 64
-335.357666 2.600943 866.012859 48 38 68
-202.168155 1.054336 1302.733612 52 38 63
-211.006904 -99.339795 1291.490078 31 30 64
-211.006904 -99.339795 1291.490078 31 30 64
-200.321937 51.097351 1298.710632 56 43 77
-201.542115 17.392081 1300.700855 33 24 52
-333.220029 -7.163385 865.718174 33 30 54
-196.987557 77.382410 1289.044094 107 92 149
-196.060979 101.804364 1287.529278 92 79 132
-340.578842 -81.673473 852.785587 118 100 156
-204.392552 168.750632 1234.251022 62 46 84
-191.697705 82.458401 1284.004974 32 26 58
-191.912758 51.012701 1288.300133 52 43 70
-192.555749 16.305068 1290.966892 35 27 56
-201.471496 -145.086157 1285.523987 33 27 64
-192.277122 120.854080 1262.861824 51 41 92
-201.897573 -178.717065 1281.088829 35 28 60
-197.090650 -143.903303 1288.753605 29 24 64
-199.718523 -175.021386 1280.745983 93 79 131
-185.229838 81.601274 1278.447056 35 26 60
-186.601067 -49.375755 1285.935593 22 23 51
-186.601067 -49.375755 1285.935593 22 23 51
-195.137489 182.328737 1201.891422 122 104 142
-192.679083 -269.179130 1280.413723 100 87 142
-176.002216 83.784240 1268.858337 27 23 37
-179.442978 -147.680593 1291.501904 40 32 60
-186.220646 -173.192179 1275.076103 29 27 57
-189.307249 -271.187544 1274.193573 51 35 71
-173.626792 -136.117578 1280.852413 42 33 62
-184.016860 -271.878052 1269.472504 60 41 84
-170.837450 -96.246731 1276.982212 41 33 67
-169.529450 -8.013138 1266.029358 113 122 148
-169.312966 -11.563299 1267.030621 122 134 156
-168.875742 -15.071455 1267.329597 120 132 152
-182.149315 180.958629 1189.937687 116 102 132
-172.411859 79.712850 1232.472801 86 100 109
-166.521788 -93.594939 1276.253986 79 65 119
-175.132859 141.050947 1206.672573 192 146 131
-174.238551 149.102008 1204.303741 59 46 80
-176.320124 -270.065856 1255.580044 101 87 143
-157.853913 -50.683850 1270.844746 51 68 91
-253.050494 235.119033 957.584858 64 48 80
-157.794309 35.584536 1250.088310 22 21 48
-252.458596 205.874467 960.982704 54 44 94
-171.126652 -274.256468 1254.401779 49 41 85
-167.827356 69.021028 1207.758713 33 43 71
-254.192352 172.845232 952.395248 76 66 112
-165.704978 47.255754 1212.667179 112 112 120
-155.420268 -59.707361 1255.235100 33 28 64
-171.448076 -281.278491 1245.452690 116 99 145
-164.656174 44.836015 1212.556934 131 134 143
-169.549894 186.360693 1176.535892 56 47 60
-151.693583 -30.702245 1257.978821 58 54 96
-152.660239 -42.449716 1254.362679 47 40 71
-162.528288 49.132329 1211.108017 93 93 101
-156.856585 5.475184 1230.444145 183 212 225
-153.631163 -10.609861 1240.109634 64 95 124
-155.980027 8.858518 1230.025291 112 134 156
-249.320221 257.012200 935.581493 51 44 85
-247.453570 251.569247 936.345863 157 128 171
-157.854629 -273.662114 1245.403767 102 84 141
-141.097474 -2.797118 1246.553230 16 38 69
-154.946566 161.197948 1182.686806 74 58 86
-154.946566 161.197948 1182.686806 74 58 86
-243.910551 171.558797 947.479248 89 79 130
-152.832186 162.734807 1181.403923 68 50 80
-140.613139 -110.175216 1248.372459 74 65 114
-136.667359 -74.579382 1252.742577 66 58 112
-148.567486 74.306375 1199.879456 38 37 60
-133.487701 26.354787 1238.931656 81 103 121
-143.384361 61.902922 1206.974411 156 170 180
-136.395478 6.074208 1225.905514 65 73 99
-125.695443 21.346104 1240.589333 50 66 84
-135.920310 80.162209 1200.880909 23 18 29
-135.457778 64.640301 1203.177643 148 158 168
-222.121644 229.381442 948.845100 83 62 102
-135.784197 -276.673317 1216.261292 41 27 58
-136.824763 -253.765631 1207.578564 27 24 44
-214.796948 249.330735 941.743946 118 97 133
-129.816091 -185.422742 1201.728249 39 29 56
-128.107929 157.995510 1156.251526 77 62 90
-210.810089 220.799494 948.897362 72 55 93
-126.108527 -173.911548 1200.536346 85 69 104
-111.754274 80.122095 1195.110035 99 88 142
-122.470069 -184.602249 1199.774837 41 31 73
-106.533051 40.497008 1197.507572 40 30 68
-124.453914 -279.162478 1197.101212 25 22 44
-104.557967 71.762580 1193.169498 33 22 66
-198.264289 188.918936 953.444862 80 63 109
-113.562202 -164.740992 1191.153431 49 38 77
-100.991988 -81.481445 1205.602074 71 64 122
-99.499464 53.987265 1188.821220 44 37 70
-114.095950 -181.622362 1186.284542 35 27 51
-100.160122 -9.888887 1195.007420 48 38 68
-100.160122 -9.888887 1195.007420 48 38 68
-112.175846 -145.595384 1183.976650 98 82 137
-113.445318 142.005765 1141.114140 114 93 140
-113.680720 -185.158968 1183.483982 108 91 146
-113.680720 -185.158968 1183.483982 108 91 146
-96.977592 -25.982463 1194.118690 33 30 54
-93.741602 89.040285 1180.206013 93 81 136
-93.741602 89.040285 1180.206013 93 81 136
-109.322035 141.601920 1138.382626 55 40 73
-106.216371 -167.898166 1182.808018 105 90 136
-105.422294 -150.003135 1178.111267 118 100 156
-89.970428 5.138464 1184.136295 37 27 63
-90.969443 -25.907084 1185.926247 41 36 65
-90.705508 -25.968978 1186.289310 41 36 65
-86.170262 70.850420 1174.181843 96 83 138
-101.479673 -185.927105 1172.111320 104 90 137
-183.248281 256.345677 933.903027 77 67 111
-83.255953 69.487202 1171.058846 36 26 67
-90.225428 -68.802875 1166.429138 89 74 112
-85.473758 152.090573 1109.960270 42 35 57
-85.473758 152.090573 1109.960270 42 35 57
-80.720598 -263.579011 1163.295364 62 54 101
-156.388164 206.171560 949.811935 72 54 88
-62.604314 124.090707 1146.084023 58 50 73
-77.649927 -263.747144 1158.792591 66 57 101
-62.458187 -192.135322 1174.240208 25 19 42
4.736292 242.649579 1246.547890 101 85 133
-73.605251 153.533578 1100.214291 50 38 75
-71.036178 135.800469 1098.219299 57 49 62
39.494872 253.041673 1290.524483 101 85 133
-32.570007 44.348389 1152.156734 25 20 45
-60.410959 136.401558 1086.609173 49 42 62
-27.893826 -26.215264 1158.428288 43 33 63
-35.315406 27.980500 1137.054348 62 52 107
-55.555922 140.619218 1085.002708 49 44 59
-27.090898 13.676687 1149.010754 60 52 100
-21.739697 -40.421814 1159.809971 46 42 77
-23.181421 -16.227558 1150.707722 116 100 146
-25.339296 24.115878 1139.683914 107 92 149
-78.505290 163.031530 1026.731586 147 122 162
-17.271549 -7.943827 1146.254635 41 33 63
-17.271549 -7.943827 1146.254635 41 33 63
-15.872063 67.255569 1139.127254 37 28 68
-12.851676 62.039620 1135.755634 47 35 70
-24.272572 -80.075324 1115.829182 29 27 60
13.566498 -323.059916 1199.592018 86 68 95
13.939308 -242.038751 1190.682125 144 121 134
-31.215504 120.360374 1060.155296 111 93 143
20.005700 -270.302534 1187.537098 87 70 93
13.202940 -151.336443 1161.664391 31 32 64
-30.135170 118.494165 1056.671810 137 116 148
-28.662458 145.374596 1051.172924 47 43 67
-230.818653 -64.755040 759.861755 138 117 134
26.530305 -326.428914 1187.661076 71 47 62
27.761391 -324.499846 1186.195469 128 109 119
9.402215 62.004566 1113.045597 35 33 64
31.829467 -312.816405 1180.654526 85 72 103
31.829467 -312.816405 1180.654526 85 72 103
-22.280918 235.254121 1030.854893 80 66 120
-18.554193 225.283074 1028.490639 30 30 40
38.868362 -270.025778 1170.170212 73 54 68
-14.667417 143.438542 1038.322926 52 41 77
-16.014290 227.920103 1023.563194 36 31 65
-12.070623 129.708576 1038.116455 55 50 64
-1.840235 112.933648 1052.065754 55 49 75
45.819265 -187.921989 1155.499935 88 70 98
46.542343 -297.265339 1162.015915 88 70 100
-8.078320 215.286279 1018.593121 54 44 89
-6.571580 241.964102 1013.857079 48 43 63
51.432729 -297.914147 1157.115364 96 74 102
8.043420 113.649392 1043.920517 59 59 93
53.832644 -144.506752 1137.513924 93 71 100
55.464709 -230.341220 1147.567081 70 51 74
15.991622 105.353558 1048.077393 123 105 163
26.009470 88.327694 1059.932518 46 42 89
2.149992 214.289260 1007.342148 47 36 81
60.627478 -180.581522 1134.782219 153 128 139
65.348947 -257.751513 1140.118408 74 66 94
3.946160 254.741430 996.363640 110 89 136
68.731618 -272.862744 1138.860893 91 70 84
20.359382 -26.532760 1036.379719 98 84 139
22.261053 -24.999291 1038.333511 108 94 145
73.803008 -212.308788 1126.991367 135 114 137
13.362464 232.261658 994.225597 53 41 74
13.362464 232.261658 994.225597 53 41 74
17.969199 142.756748 1004.220581 58 46 85
76.760477 -144.679892 1116.716671 131 116 135
77.218837 -142.065120 1115.432835 91 69 93
79.693806 -313.701987 1132.919598 91 68 83
79.693806 -313.701987 1132.919598 91 68 83
78.469932 -141.636956 1112.249374 91 69 87
78.469932 -141.636956 1112.249374 91 69 87
79.736459 -114.106393 1109.381962 75 58 71
82.176495 -278.410840 1127.326298 81 64 83
18.328290 253.260374 981.891155 106 83 131
25.907025 120.746207 998.401356 52 46 59
23.612161 182.430112 988.129711 25 25 41
87.593251 -220.486403 1112.519836 83 68 95
87.620711 -256.455541 1115.410900 77 62 91
87.260401 -77.561200 1096.077633 71 61 91
92.732817 -222.774243 1106.917477 84 72 98
102.415121 70.492959 1065.574932 132 109 123
108.166826 -279.731560 1100.685883 72 61 84
106.522584 44.766557 1065.385723 128 112 134
110.563731 -275.146866 1096.149540 90 65 78
107.779837 67.397803 1061.478519 121 103 118
114.005876 134.369469 1046.876240 71 53 79
116.797185 -80.634403 1067.418480 70 63 94
119.388831 110.690343 1039.848042 76 60 86
125.194049 -198.463583 1073.510933 75 66 75
125.251734 -153.596091 1068.232155 62 51 68
122.773278 36.089814 1046.721935 79 73 105
123.735178 196.168530 1028.826618 133 114 121
122.219527 100.208104 1032.433319 139 123 149
125.038421 163.647544 1029.692459 77 53 70
128.881454 35.610944 1042.339802 91 77 106
127.007651 202.222276 1024.377060 134 109 120
131.530130 -128.627515 1057.374001 124 107 131
128.766966 136.482477 1030.455303 71 55 69
129.620266 -0.969825 1043.033123 53 47 66
128.919411 110.442388 1032.450485 146 123 127
133.537507 -226.198649 1065.812016 72 59 85
133.537507 -226.198649 1065.812016 72 59 85
129.354513 162.345612 1026.110268 145 123 130
131.234217 29.509211 1039.763451 78 66 84
131.366539 21.778627 1039.441967 78 65 85
130.877209 109.320593 1030.185032 82 63 87
130.959344 231.022668 1018.113899 40 30 45
130.959344 231.022668 1018.113899 40 30 45
-35.496518 270.849085 807.750225 148 130 117
137.441289 -242.012930 1064.598465 123 108 112
141.848469 -202.201653 1054.408455 68 57 81
137.488782 99.529684 1022.937012 97 75 102
137.488782 99.529684 1022.937012 97 75 102
138.058221 234.814596 1011.043072 109 92 101
144.507265 -328.417587 1066.069126 90 71 88
144.352138 -240.722752 1056.712723 61 46 64
144.475317 -198.232925 1052.153492 83 63 84
139.723504 132.325017 1018.000793 80 60 79
143.596339 -21.368837 1033.973312 126 108 125
145.740533 -23.629393 1032.289124 75 57 78
141.517508 171.347868 1010.323524 140 120 135
142.112446 130.478120 1014.067650 82 59 74
145.118117 126.253927 1015.118790 149 129 133
144.585621 239.470959 1004.039192 53 44 57
144.643295 217.599225 1001.914692 119 96 121
144.643295 217.599225 1001.914692 119 96 121
149.396145 125.869715 1012.720966 57 50 75
155.596018 -324.830770 1054.908752 78 65 83
155.656803 -89.402127 1028.900909 69 53 62
152.481413 169.398201 1001.868153 148 125 129
160.018814 -121.067750 1029.719925 51 44 63
158.485818 -85.342681 1023.615456 73 55 85
156.288540 192.250204 998.284054 92 67 82
157.649374 125.781953 999.453640 54 49 73
157.191694 235.102129 988.986969 120 104 133
165.407407 -284.765935 1039.248753 82 63 77
161.811233 60.275382 1005.954933 82 64 87
164.878833 -161.317360 1026.051903 68 54 80
164.887297 -48.389474 1014.313221 50 43 64
160.634875 182.540226 989.623260 141 122 137
160.634875 182.540226 989.623260 141 122 137
167.930520 -268.256640 1032.939148 72 60 83
168.259120 -7.506971 1009.036160 81 65 86
168.394184 59.794182 997.753525 70 63 90
172.856760 -244.200349 1027.056217 60 47 64
165.372944 227.630568 980.242538 56 42 62
171.086907 27.348068 997.759914 72 58 84
169.466031 161.192310 983.943558 69 56 74
175.447750 -231.723094 1020.882320 77 60 76
172.872233 -1.769029 998.766232 83 68 95
171.705222 91.579676 989.163113 68 46 57
176.750326 -206.570649 1018.227673 80 62 72
176.048040 -83.370453 1007.570457 137 120 134
176.812327 -251.214170 1021.244621 84 63 92
178.157556 -264.900351 1023.121357 138 115 135
177.693701 -122.608912 1008.962154 72 60 72
178.226149 -49.378639 999.312973 64 49 64
177.310681 231.175804 967.535400 130 106 114
186.839807 -241.804790 1011.575985 74 59 70
181.194735 237.458348 963.030434 142 116 129
189.576697 -245.419741 1008.543015 134 113 121
190.826559 -243.339396 1008.365726 80 56 65
191.414630 -295.389724 1011.575031 76 60 84
186.656785 36.588770 980.023289 86 68 81
193.749905 -329.297924 1016.008759 59 43 53
192.837977 -281.081986 1009.526539 93 64 79
194.731295 -90.758985 989.291954 64 51 75
198.641133 -329.787111 1008.937168 87 66 83
196.990645 -290.494919 1003.192043 122 101 125
176.394844 258.264947 938.251781 82 61 73
189.609098 226.965094 951.390839 43 34 52
195.001054 56.197393 968.441296 90 74 97
201.102710 -199.749827 992.188931 126 112 138
198.740363 29.358670 969.158745 49 39 55
198.032379 127.137291 960.831261 58 49 72
451.446772 -331.702781 1260.932255 82 63 77
205.616379 -167.059612 986.192703 130 112 121
201.344323 55.581546 962.027073 79 61 84
209.247303 -191.331553 984.038639 79 65 90
209.247303 -191.331553 984.038639 79 65 90
211.068964 -289.987087 992.146683 84 60 75
209.906340 -124.302626 974.314880 60 47 69
211.330771 -206.144691 981.477833 91 72 88
208.557534 30.589792 955.732727 131 112 129
210.397911 -10.477272 960.533047 73 63 86
214.094830 -175.250220 975.900459 81 62 93
214.005589 -12.067331 954.984283 78 67 90
214.005589 -12.067331 954.984283 78 67 90
212.890291 180.776548 935.618973 120 106 127
212.117362 230.842686 929.236031 122 110 125
214.714289 183.797443 934.944630 65 53 70
223.668766 -174.183989 965.137196 85 65 88
229.291081 -288.640094 975.118256 140 115 126
225.071144 -122.673440 958.100224 129 111 130
228.817368 -126.368117 955.760288 64 52 67
224.664354 29.717186 939.231014 138 120 140
221.230197 232.435703 918.953800 128 113 135
228.754616 -15.229797 943.377876 64 50 65
229.577374 -10.530426 942.859554 138 113 122
224.205256 218.459201 916.962051 137 121 138
226.564837 227.002645 918.267059 49 35 48
237.549973 -248.545980 961.238861 68 51 64
237.549973 -248.545980 961.238861 68 51 64
230.812073 47.937322 928.217888 67 55 73
236.192226 52.250022 927.425480 71 52 69
234.387994 226.452327 908.831120 63 52 64
234.991741 150.998044 913.557053 64 52 71
247.068024 -334.541893 959.289265 91 67 78
247.068024 -334.541893 959.289265 91 67 78
238.038802 42.306867 923.509216 99 81 108
238.038802 42.306867 923.509216 99 81 108
241.061187 224.286127 904.248428 69 53 71
244.209886 151.113415 906.482220 73 62 84
251.626635 44.592586 911.096668 96 79 108
264.247990 -259.487271 931.457996 141 120 145
253.704476 234.459853 881.206608 95 71 82
253.704476 234.459853 881.206608 95 71 82
241.569853 267.916536 868.286610 251 181 164
241.569853 267.916536 868.286610 251 181 164
264.103532 48.624727 895.909882 76 60 84
262.171292 179.464912 880.716705 60 52 78
247.944450 272.564220 857.722282 36 23 18
265.947723 119.476604 883.066559 67 54 76
-8.700866 -85.776407 693.641710 194 179 172
266.682577 150.914752 879.891205 121 108 129
254.712486 279.508495 849.333668 74 69 71
254.599595 263.152194 849.914932 253 183 165
255.427241 254.406786 850.424385 255 191 171
293.813348 276.529717 837.568951 18 17 12
903.907585 404.325724 1248.686218 105 97 105
730.078125 -100.848806 1128.831005 118 77 81
-579.915619 312.759757 1227.562332 175 156 139
-487.865639 -255.029345 1710.020065 90 66 81
-480.258417 -199.497104 1696.783638 83 69 91
-505.562449 333.414173 1407.150841 40 61 36
-470.355368 -203.741026 1685.265541 129 113 137
-459.429693 321.894383 1618.918991 73 59 70
-459.633827 327.684355 1612.525558 132 116 126
-464.754152 7.063206 1659.134674 128 101 120
-458.824539 262.218595 1624.230576 136 111 123
-461.900759 -58.452654 1661.868477 72 53 62
-459.301996 -12.526593 1655.143166 131 106 124
-460.106611 -89.165276 1664.863205 62 55 67
-462.147856 -206.276250 1679.447937 118 104 129
-456.860924 12.066116 1650.648689 80 59 64
-456.860924 12.066116 1650.648689 80 59 64
-450.588036 261.781693 1615.553474 120 99 110
-450.588036 261.781693 1615.553474 120 99 110
-460.553408 -257.201815 1682.269096 70 57 75
-454.888868 -14.118576 1652.531052 74 58 68
-448.248577 321.278763 1606.452751 70 60 71
-455.432034 -90.027565 1660.815620 66 55 70
-452.052546 -15.703441 1648.250198 66 50 66
-443.696547 263.659763 1610.547447 58 51 55
-447.600079 -13.694623 1642.511368 130 104 119
-442.201900 208.181024 1616.020012 100 76 86
-442.201900 208.181024 1616.020012 100 76 86
-447.506905 -200.538731 1663.265038 124 107 129
-436.149168 265.757990 1602.132607 117 96 109
-438.245916 110.124397 1625.062370 82 66 73
-440.240479 15.757097 1632.601166 135 110 125
-442.581463 -119.811177 1647.319031 79 57 70
-438.075924 -170.780158 1652.052689 67 59 70
-438.252068 -205.039573 1655.235100 73 62 79
-430.835676 150.364172 1608.226204 130 105 107
-436.301374 -194.661403 1652.801323 88 82 97
-431.286812 339.807439 1561.253262 50 49 50
-427.139616 183.533657 1598.959732 27 15 15
-431.522655 -167.808807 1649.355888 118 96 120
-431.522655 -167.808807 1649.355888 118 96 120
-422.238970 319.941211 1579.068756 71 55 62
-430.817795 -159.004796 1638.829422 51 40 56
-430.964327 -206.380892 1644.351196 112 103 120
-425.762558 17.782351 1617.919922 70 53 66
-420.278692 298.356605 1581.837368 128 108 109
-419.993258 321.768260 1576.343346 124 112 118
-424.116898 33.398825 1611.689949 63 50 66
-418.629551 233.521175 1584.095001 140 109 117
-419.501352 175.766289 1590.824890 242 171 157
-416.743135 132.058156 1598.871231 54 44 56
-415.060616 256.609821 1579.286766 121 95 108
-417.579269 -20.964766 1615.612602 63 46 58
-411.787224 293.521023 1575.734520 60 48 51
-417.084599 17.372443 1608.367348 48 34 44
-417.084599 17.372443 1608.367348 48 34 44
-420.083237 -192.348814 1636.936760 133 119 136
-417.495537 -23.026499 1613.492012 95 75 96
-413.670635 137.006748 1591.926098 116 95 107
-410.569763 61.639005 1601.642418 75 59 71
-415.755224 -266.516852 1643.803787 64 47 61
-414.762497 -183.062863 1630.381966 66 50 63
-363.756776 183.724654 1771.182632 96 69 73
-408.876991 161.839032 1583.716488 105 64 64
-404.899454 319.117570 1562.049103 59 50 58
-407.287931 141.853058 1586.791992 104 89 104
-407.715464 -96.950394 1608.974838 129 103 116
-401.705217 196.796811 1573.074055 111 96 108
-403.703547 -165.789115 1617.129135 55 48 72
-397.824168 59.208560 1585.424328 65 54 70
-397.602773 31.375435 1590.834141 73 58 71
-398.464990 -0.202498 1592.411327 75 53 67
-398.464990 -0.202498 1592.411327 75 53 67
-391.071820 297.787857 1550.476456 112 93 109
-394.175816 335.666513 1524.175262 40 35 35
-390.981650 130.146945 1572.708321 50 41 53
-392.453694 73.229313 1576.989460 125 103 115
-390.702891 11.090697 1584.765720 44 31 42
-388.435102 94.287992 1572.128296 74 57 66
-388.435102 94.287992 1572.128296 74 57 66
-386.842489 132.624781 1565.328598 112 91 98
-389.927197 -137.628257 1597.732162 70 58 78
-386.747098 11.730966 1578.218460 43 37 44
-384.581494 76.398420 1569.835854 51 38 57
-386.017489 -85.459238 1588.336658 84 59 66
-381.526899 159.227335 1556.768227 70 52 69
-380.110526 172.977698 1555.184269 54 46 63
-381.361532 16.823283 1577.880096 124 104 123
-378.615642 154.844487 1556.074047 55 41 50
-381.007648 -92.940813 1587.484074 129 103 118
-375.641870 253.287911 1541.951084 48 42 56
-381.231332 -167.380583 1594.434834 56 50 75
-374.485087 157.002032 1553.165150 61 44 57
-372.811198 254.475427 1540.363693 103 86 99
-373.529077 221.240258 1541.976070 55 39 51
-372.432685 257.065248 1536.791420 44 36 42
-375.434947 100.312102 1549.421787 45 40 52
-372.774673 26.588064 1567.594337 74 59 74
-374.345732 -28.584811 1569.385719 70 47 64
-374.345732 -28.584811 1569.385719 70 47 64
-369.034100 291.794801 1529.355812 48 40 52
-371.280551 156.769323 1545.688057 62 45 59
-369.239163 173.557353 1543.070030 52 41 54
-375.665283 -265.174747 1598.420715 119 104 131
-367.439961 219.664431 1538.845253 51 37 48
-366.887927 205.405784 1535.800552 41 32 44
-364.643621 252.758980 1531.156254 96 80 92
-369.365716 -29.332864 1565.190220 75 50 66
-368.109298 8.808800 1561.871624 46 37 48
-363.886189 255.161119 1529.596806 37 30 39
-363.886189 255.161119 1529.596806 37 30 39
-366.192937 -186.676598 1581.772995 118 94 113
-362.195945 97.950041 1544.503307 41 34 44
-356.483388 293.528080 1517.063713 106 87 91
-361.573648 -283.700681 1587.102699 76 60 78
-360.505629 -192.450428 1574.405479 57 39 47
-356.135917 24.939050 1548.903561 59 49 66
-354.574299 193.411899 1524.052906 46 37 48
-353.953934 154.079056 1531.972885 37 33 43
-356.513762 -73.646790 1559.505367 74 57 69
-355.323052 61.892802 1539.525318 58 42 54
-356.875420 -169.132626 1570.006847 63 52 63
-381.819010 298.960280 1398.703003 112 93 135
-350.846601 148.492622 1523.224163 87 76 98
-351.222491 -185.676396 1565.875244 124 111 121
-347.552729 30.962387 1534.850883 107 92 120
-347.116899 3.891984 1537.919140 51 38 48
-346.725488 -29.745659 1542.919445 50 39 52
-348.564744 -184.114909 1562.765503 73 56 72
-344.682288 90.995318 1526.993656 34 29 41
-374.467683 168.440711 1408.505821 33 27 39
-342.866445 145.220220 1515.752888 102 81 96
-343.659425 89.827681 1522.457600 39 32 46
-342.475891 -0.294081 1537.351036 105 92 115
-343.975353 -99.405670 1547.607803 134 115 126
-342.072463 -27.276528 1540.336704 120 105 121
-342.152357 -69.852281 1542.665291 64 51 73
-371.592569 180.509114 1403.660583 76 71 107
-370.839691 164.454055 1406.887722 33 28 47
-336.254430 140.463495 1512.021160 38 32 42
-336.254430 140.463495 1512.021160 38 32 42
-418.941307 283.779836 1215.726757 103 83 125
-329.598975 93.990344 1510.154915 50 45 63
-330.802274 -183.552802 1544.098568 69 55 72
-327.424169 -185.917926 1541.777897 68 51 66
-327.105498 -178.741419 1540.615368 126 109 130
-423.505211 277.297568 1123.206615 38 33 49
-309.173393 -32.853729 1501.808548 146 122 131
-309.954214 -172.059047 1520.620346 57 49 62
-326.525426 117.322481 1421.989250 91 75 107
-308.386254 -276.763225 1531.944752 81 67 77
-305.434918 -72.303945 1505.280781 76 63 90
-303.943086 48.426211 1472.537804 40 37 76
-301.221418 -230.397153 1517.632961 119 104 126
-418.980122 275.701475 1108.635902 45 39 77
-297.608495 -189.375794 1511.620522 49 43 62
-413.851643 265.844917 1117.201900 134 110 152
-294.701076 -73.740989 1494.768143 57 45 61
-293.629670 -31.823769 1488.494492 86 63 79
-293.918490 -148.210943 1504.297066 52 35 42
-292.782402 -35.792813 1487.903023 83 63 78
-326.391983 182.451487 1357.117081 48 37 78
-304.069161 64.388055 1426.987648 31 31 70
-288.997841 -96.421868 1490.895176 80 59 78
-322.814202 159.383500 1359.951878 38 33 61
-287.105799 -100.570583 1489.194870 72 53 72
-307.597971 150.317609 1388.431835 54 47 67
-283.517480 -37.650475 1479.760265 63 46 64
-403.011608 238.367534 1112.421036 66 50 101
-402.277994 251.148629 1110.963058 61 44 82
-278.132963 -46.904460 1472.869682 125 107 135
-278.132963 -46.904460 1472.869682 125 107 135
-279.098463 -142.400682 1484.143066 68 57 89
-399.741435 233.414292 1109.475422 54 43 85
-275.763130 -142.524755 1481.619358 67 54 76
-274.056506 -108.067060 1476.864910 62 49 67
-396.274185 266.269851 1096.902180 91 75 108
-306.818819 156.581831 1337.333584 45 36 65
-268.569589 -232.009411 1489.649487 133 111 124
-269.711900 -226.048613 1484.772301 85 68 86
-268.535566 -193.429554 1482.472134 75 50 61
-392.721605 236.169863 1102.576447 58 42 78
-302.831507 180.090201 1334.397888 59 45 85
-267.285419 -279.765129 1489.558411 78 64 87
-272.862172 110.789371 1398.837852 31 24 54
-260.962582 -198.019755 1473.079777 87 68 98
-260.962582 -198.019755 1473.079777 87 68 98
-256.817150 -109.218585 1460.452652 55 43 59
-256.534982 -193.674183 1467.425632 70 56 75
-382.741380 204.033017 1094.496727 47 36 65
-382.741380 204.033017 1094.496727 47 36 65
-289.897704 162.242854 1321.166992 44 34 69
-250.496435 -260.632062 1469.848061 40 36 59
-250.284672 -252.616191 1467.674732 133 115 139
-282.972741 -161.214328 1368.950653 49 36 95
-278.623629 -146.032310 1366.347504 62 55 105
-241.115451 -244.431639 1461.838055 135 111 131
-241.115451 -244.431639 1461.838055 135 111 131
-278.491759 157.865679 1313.642502 54 39 75
-262.232327 -79.105777 1373.101330 88 78 130
-480.755186 154.267585 839.144802 55 42 75
-369.497132 243.379760 1077.480793 70 53 103
-234.108448 -243.028045 1451.741219 77 63 83
-257.709599 -126.940072 1374.822521 40 31 56
-243.072939 89.000744 1368.777084 39 29 56
-364.117408 243.149185 1071.856308 59 44 90
-363.682842 221.618319 1074.458694 58 41 84
-243.421054 56.237745 1356.820202 47 37 79
-243.813586 53.463912 1355.195522 85 76 127
-222.111773 -300.045562 1444.625854 75 53 67
-261.940765 175.106847 1292.090607 58 43 80
-216.757226 -230.632520 1431.518650 108 89 107
-231.917930 36.263061 1361.701679 48 42 87
-258.030534 171.559489 1286.044407 59 46 79
-258.030534 171.559489 1286.044407 59 46 79
-215.600443 -287.621999 1437.658024 98 67 93
-233.012080 -89.917618 1371.710587 47 33 61
-227.183080 92.387629 1356.693554 31 25 57
-230.866933 -67.581284 1369.901180 44 36 77
-230.134606 -90.201437 1371.876335 44 33 65
-353.755856 204.470205 1065.582848 56 42 76
-225.348711 15.590021 1358.007812 39 29 55
-224.382401 52.958250 1348.897266 37 29 60
-220.933366 19.607307 1356.328583 36 28 61
-253.579807 -248.288536 1322.003555 67 59 115
-211.866975 65.876150 1341.887665 29 24 50
-244.910836 200.327539 1251.052094 67 56 89
-244.656539 195.913935 1251.196766 60 53 75
-209.349942 61.286294 1338.850784 28 21 50
-343.401623 260.320234 1042.525101 90 72 111
-231.139851 -175.910044 1314.260292 29 24 60
-343.715525 166.013515 1043.253517 67 57 106
-239.782405 -248.425794 1300.747681 77 68 123
-231.960583 155.664396 1262.572670 57 43 78
-223.940158 -189.814866 1315.211582 75 66 115
-334.029627 227.143717 1042.900562 69 52 97
-220.955181 -148.510396 1308.368206 89 74 128
-209.575796 -13.821585 1312.176609 31 22 51
-209.575796 -13.821585 1312.176609 31 22 51
-209.254456 51.939815 1304.090595 37 30 56
-226.597095 50.317991 1276.307011 33 27 54
-232.313323 -269.701743 1297.108746 71 64 121
-331.525898 215.387917 1041.041660 60 46 94
-204.304004 84.856778 1296.364594 82 74 130
-227.722239 188.874769 1233.702564 61 52 77
-220.885205 -267.412806 1302.119446 29 19 49
-201.221538 83.538264 1293.168163 34 24 57
-216.252255 -178.156245 1297.096729 93 79 134
-200.321865 -22.004755 1297.468567 102 79 105
-208.444428 138.066530 1260.062313 58 50 88
-197.610128 11.741313 1295.085430 98 88 139
-210.837746 169.275272 1239.699173 62 47 85
-210.837746 169.275272 1239.699173 62 47 85
-192.565703 16.094224 1290.968418 33 24 53
-191.925263 82.370234 1283.595753 32 21 54
-191.925263 82.370234 1283.595753 32 21 54
-207.457232 -166.738057 1285.935307 30 27 63
-191.638267 -0.403293 1293.760872 51 39 75
-201.379681 -210.603666 1296.144772 100 76 109
-197.086620 -154.972243 1290.975380 32 25 65
-193.496454 -180.175197 1281.403255 22 21 39
-178.373623 -148.415875 1293.466187 37 28 57
-176.821232 77.966636 1265.823364 114 96 112
-195.408690 167.410290 1221.686172 59 44 83
-176.416624 80.672735 1249.668217 64 87 109
-171.065342 -13.330689 1269.011497 53 48 89
-177.257395 78.438467 1246.306610 39 43 61
-164.594698 -2.564235 1274.449158 44 38 76
-167.665374 -1.255201 1265.332031 100 117 141
-166.129589 -23.952132 1266.975594 102 114 142
-162.043047 -50.009543 1275.489807 20 20 44
-181.225109 -270.694947 1267.954254 103 86 142
-177.121449 -273.225331 1266.625977 65 45 92
-170.586371 74.157709 1234.408951 18 19 27
-172.516143 -214.665008 1266.074848 95 79 132
-160.584581 -138.511789 1273.043823 41 32 62
-168.442750 75.314528 1229.453373 52 69 80
-294.821286 239.730000 999.543190 65 48 97
-165.686870 -9.661271 1241.241169 123 139 159
-171.881747 49.717677 1223.738098 67 75 84
-153.484750 -107.049227 1265.433121 20 20 48
-291.576982 200.517988 1000.889778 61 48 98
-152.463531 -129.455709 1264.493847 46 36 66
-159.229875 4.794046 1233.536911 168 189 198
-151.262701 -129.093492 1260.090160 51 39 79
-148.804998 -64.494288 1253.942680 16 14 30
-160.091627 -214.658141 1253.731441 103 79 111
-169.848955 54.293048 1204.298306 178 186 191
-166.570914 71.579802 1206.868935 33 40 57
-167.769814 64.171845 1204.409122 168 184 188
-148.854661 -59.967482 1248.017693 88 97 124
-147.500181 -122.789347 1255.852985 85 75 132
-285.714555 234.609294 991.532135 60 49 95
-285.135794 221.415401 992.858601 70 52 90
-147.977602 -65.453976 1245.136166 103 114 134
-291.449594 285.580039 974.828815 65 51 75
-291.449594 285.580039 974.828815 65 51 75
-150.189579 5.305248 1229.506302 152 170 181
-145.394111 -70.006329 1241.807175 104 107 135
-283.298707 238.715720 987.587929 69 53 103
-154.673266 73.000616 1206.490803 77 66 78
-154.673266 73.000616 1206.490803 77 66 78
-139.040852 -29.117262 1242.490768 51 46 88
-174.024522 175.374913 1154.398727 118 100 129
-155.086184 161.277568 1182.469082 72 57 84
-134.588397 -109.156168 1245.351696 20 23 51
-148.312116 -275.086617 1238.614941 96 84 141
-160.441232 185.131919 1163.850975 58 49 64
-146.954989 -276.888442 1235.302353 50 35 78
-130.225229 -142.178488 1242.308331 41 32 63
-146.815598 162.240744 1174.497509 63 45 83
-132.429600 64.858979 1199.685097 170 187 196
-139.458919 -275.421000 1225.883102 91 81 140
-130.942798 72.055131 1195.569324 146 154 167
-130.796325 69.840133 1195.715714 82 84 109
-138.063431 -175.544024 1212.613678 33 30 67
-120.425582 -102.338111 1228.181458 31 27 56
-118.290436 -87.369543 1223.877335 69 62 107
159.057260 415.713215 1572.611618 55 43 76
-126.842988 69.727075 1192.514038 196 207 211
-124.600351 66.001910 1194.029427 91 97 116
-137.424064 160.689747 1162.965107 63 48 80
-263.207984 221.675181 968.299294 55 43 73
-263.207984 221.675181 968.299294 55 43 73
-115.392303 76.079839 1198.393631 119 117 130
-132.311046 167.284143 1157.387543 60 45 76
-124.681246 -188.750803 1201.251507 101 86 140
-124.882567 -179.444897 1199.289513 105 86 138
-118.981636 -219.559622 1211.109638 104 81 112
-112.575436 111.536062 1181.938457 62 54 110
-127.430785 142.461205 1156.485176 54 50 60
-121.910059 -185.352731 1200.662899 49 34 80
-255.759454 218.108606 962.564182 52 40 89
-255.759454 218.108606 962.564182 52 40 89
-124.610662 284.275007 1144.811440 65 48 97
-257.038283 233.180356 957.792568 75 60 92
-102.814960 -25.855762 1201.304626 82 71 127
-102.814960 -25.855762 1201.304626 82 71 127
-101.410913 72.711295 1189.983749 90 79 133
-122.045970 171.152663 1148.336792 111 94 145
-129.587483 182.255590 1135.819817 52 48 64
-252.896380 205.537677 960.401154 57 44 95
-99.598211 -9.854383 1195.787334 46 37 65
-98.803645 25.116476 1190.888119 41 32 63
-250.690174 216.527557 956.165409 58 46 94
-250.690174 216.527557 956.165409 58 46 94
-114.648092 -186.433375 1189.436817 114 96 149
-96.272403 58.380800 1186.853695 48 36 72
-93.796188 82.428467 1181.139565 88 75 130
-93.796188 82.428467 1181.139565 88 75 130
-111.178470 -186.689901 1187.099457 110 95 146
-94.757116 65.797532 1180.744648 116 102 155
-254.193449 156.750143 951.123524 70 60 115
-110.081780 -184.274387 1186.010647 101 87 133
-90.257239 24.057561 1182.430649 40 32 62
-90.257239 24.057561 1182.430649 40 32 62
-89.643914 89.406925 1175.250244 40 30 62
-88.835591 -11.575736 1187.451267 55 43 78
-88.620806 53.025949 1180.370045 54 41 79
-244.228148 176.993108 953.104115 42 39 75
-109.752190 141.580892 1137.808990 57 41 73
-243.957138 246.390629 943.175888 165 136 182
-86.378455 -27.218994 1184.058762 85 76 128
-115.808463 180.569112 1121.238041 67 57 87
-96.524131 -157.700312 1181.490231 42 31 76
-81.905824 37.533787 1172.654057 38 30 61
-81.497693 37.144631 1172.910500 34 25 58
-81.497693 37.144631 1172.910500 34 25 58
-87.922567 -213.226581 1184.926224 29 23 58
-93.516552 -194.168723 1172.362423 53 38 81
-237.171435 256.461000 934.025288 76 58 95
-66.730732 -61.687028 1185.066223 21 20 51
-66.730732 -61.687028 1185.066223 21 20 51
-95.874369 155.845904 1122.089958 57 42 76
-227.145290 256.426191 933.600998 82 70 120
-216.208982 214.427710 949.207973 128 109 151
-214.988780 208.378839 950.824261 89 66 116
-89.871866 155.490518 1115.021515 49 37 76
-50.392520 -135.891998 1194.784546 34 27 59
-46.723029 11.705092 1175.793648 46 36 70
-80.451310 154.970276 1105.241394 43 37 58
-11.647180 -338.073301 1229.724312 87 70 105
-73.997080 153.550124 1099.742985 57 43 78
-75.320619 136.478031 1099.214268 56 48 76
-184.572208 242.837095 954.600048 136 110 156
-34.260356 37.403542 1157.883930 31 24 46
-35.188699 27.136290 1157.565308 37 30 60
-36.668813 29.649410 1138.847446 109 94 139
-31.098899 -51.357710 1148.723316 92 78 131
-33.824170 29.500371 1135.528469 95 83 132
-64.497566 132.958901 1088.406944 51 41 77
-63.171798 133.032322 1089.366913 51 41 77
-172.217917 190.049362 953.268814 60 45 84
-169.536436 202.919555 953.089237 78 57 95
-42.631039 16.049559 1116.567326 57 46 99
-16.075899 67.273432 1138.891220 46 37 80
-20.035011 18.021698 1139.085007 118 100 154
-20.035011 18.021698 1139.085007 118 100 154
-57.256740 135.972774 1082.957363 103 88 139
9.233744 -239.804721 1198.105907 132 112 131
9.233744 -239.804721 1198.105907 132 112 131
-162.877035 224.508572 948.874092 62 44 90
-18.313104 23.542894 1133.318996 117 100 151
-53.554428 134.988487 1079.369450 55 44 80
-25.696808 -144.277763 1140.111828 88 75 122
-11.430418 34.650600 1132.838535 43 34 76
-267.687035 174.385858 827.236271 39 33 52
-34.850547 -184.130716 1125.651741 35 29 66
-27.858508 -170.890141 1129.614544 69 58 103
-6.994042 -9.286261 1135.886383 40 31 56
24.404208 -247.095299 1183.631229 91 74 108
0.590222 41.214702 1124.243736 41 34 67
28.242940 -327.606821 1189.680386 89 64 83
6.467866 78.620857 1113.290501 38 30 62
33.386585 -313.753510 1182.446766 85 72 105
9.252179 20.834583 1118.434048 49 38 70
9.252179 20.834583 1118.434048 49 38 70
39.253181 -312.957168 1177.084637 91 73 104
44.840392 -270.769405 1166.339397 143 118 136
4.818427 -56.776565 1100.998497 39 33 76
47.045353 -287.392282 1165.156078 79 58 80
-23.548338 148.570085 1045.847607 44 40 54
47.676536 -292.788267 1164.210320 135 114 135
51.246822 -146.333635 1142.369747 83 66 91
56.044859 -287.158418 1155.054092 99 77 105
57.114416 -231.105447 1149.327755 73 55 77
57.425892 -313.311577 1156.612301 84 65 84
62.626565 -276.250505 1148.578072 94 75 106
62.431705 -181.126940 1136.641979 153 128 142
12.089765 102.866352 1054.175091 60 52 103
66.159612 -311.932087 1149.169922 138 115 130
65.805286 -215.905285 1136.655235 85 70 98
67.843246 -276.426172 1144.512749 83 69 101
66.810590 -287.426877 1144.575405 89 66 97
40.117747 -55.970222 1094.400406 129 112 145
8.157101 113.754153 1044.025993 63 59 94
31.960335 83.661097 1068.297958 43 38 88
71.062279 -273.874998 1141.260242 91 67 82
-5.549475 227.699947 1013.972759 53 37 89
70.324647 -103.478384 1119.031715 104 75 101
-0.411617 129.753017 1023.649216 109 91 140
29.182640 67.196685 1058.006859 126 107 153
53.707314 14.493778 1085.899258 28 27 65
31.400576 74.614882 1053.828526 44 31 64
35.787135 -1.083227 1064.734840 24 19 36
78.843015 -193.457854 1125.112343 103 79 102
3.989856 128.634965 1020.190334 52 42 67
3.989856 128.634965 1020.190334 52 42 67
81.685281 -314.768147 1134.940147 90 69 85
6.370903 125.168741 1017.419052 43 32 59
80.110931 -142.069149 1113.858509 91 72 90
80.110931 -142.069149 1113.858509 91 72 90
81.399995 -216.339707 1121.853065 135 116 131
81.151992 -114.306915 1110.753441 72 56 70
85.243708 -111.330342 1107.489395 80 64 87
85.264856 -255.482626 1121.565533 85 73 101
8.484700 226.081586 998.935413 58 43 77
87.167305 -246.925139 1120.148182 97 75 94
41.741982 78.077042 1041.835499 41 37 78
43.632466 62.281132 1043.967915 63 51 81
13.503906 207.378101 997.121811 42 32 65
18.034962 126.449025 1006.822109 48 37 66
93.948299 -223.349285 1108.096409 89 74 99
21.750367 114.632142 1003.187370 107 88 139
98.245150 -108.876586 1091.131210 134 113 136
101.539397 -149.570799 1095.364380 152 123 128
25.848886 120.776141 998.347759 51 45 58
23.736441 182.734346 988.225365 23 26 42
29.549921 119.331610 994.351006 106 90 130
106.772554 -260.656095 1100.184727 82 67 92
108.757591 -329.181290 1107.551098 83 70 94
108.704364 -276.379395 1099.979401 135 112 124
113.198948 -276.155972 1098.572159 88 65 82
119.509268 100.725627 1040.712929 137 123 145
126.174581 -199.007642 1074.397850 75 64 73
123.045373 -0.583680 1050.177956 68 56 84
124.892151 88.490903 1038.331413 78 59 82
126.100540 100.800025 1035.628891 147 130 155
133.326304 -241.071129 1071.135235 83 70 89
131.612742 29.667532 1040.065193 77 65 86
135.501099 -226.936173 1067.511082 77 64 89
130.697405 140.389979 1027.694798 131 107 117
131.816161 198.335087 1019.531441 87 65 86
137.836134 -204.551077 1061.737442 134 115 141
133.027959 160.890985 1022.498226 70 50 70
134.586537 66.514724 1031.548691 141 118 129
136.271942 -24.125439 1039.448357 57 50 74
141.882014 -229.571843 1061.371326 77 68 88
143.215919 -266.864300 1064.018917 64 52 69
135.842466 156.215608 1016.914654 125 111 136
136.243260 234.999609 1009.587383 110 90 100
138.024449 99.898821 1023.345566 97 75 100
144.411755 -252.554917 1059.295177 96 72 99
138.223338 237.398219 1007.216167 59 46 66
145.469439 -162.624729 1051.123905 82 66 81
144.774747 -230.962348 1057.051849 116 103 125
144.774747 -230.962348 1057.051849 116 103 125
138.490593 163.425303 1014.210415 126 100 114
146.841896 -329.347205 1068.041992 92 71 89
138.802242 161.295307 1013.468075 61 45 63
146.086848 -198.776972 1053.503704 92 70 89
142.259884 115.158272 1019.732189 87 63 82
142.259884 115.158272 1019.732189 87 63 82
148.505104 -157.897115 1048.872662 101 81 93
145.193672 -10.087492 1030.983067 78 57 80
151.675212 -324.204755 1063.968658 73 52 65
146.269143 98.398614 1018.571949 135 112 117
145.815778 -30.021524 1029.902935 77 63 85
152.887845 -241.353130 1053.833008 69 57 72
143.670619 218.048811 1001.134586 119 98 123
148.052084 -44.754580 1028.551960 119 101 115
149.010694 126.126277 1012.402916 58 49 70
151.402223 94.600207 1016.231728 51 43 57
148.995292 244.881248 996.285820 121 107 131
158.090436 -326.036596 1056.984138 80 66 85
152.363956 75.331533 1011.890030 84 73 99
151.726401 179.119182 1001.426792 151 127 131
153.723514 33.086658 1016.044521 132 111 127
151.931047 169.780135 1001.422691 145 123 125
152.330422 231.674266 995.223331 44 35 54
153.014576 183.794069 998.669910 89 67 84
147.735882 243.409944 987.833977 121 105 126
149.440229 243.674088 988.639641 121 105 126
149.440229 243.674088 988.639641 121 105 126
155.201030 52.627414 1010.944843 125 113 132
153.817272 170.634806 998.206329 83 61 79
159.875667 -121.113074 1029.614067 55 50 72
155.456734 172.833264 998.256683 83 64 80
160.738480 -8.429982 1015.227890 94 78 95
156.582689 167.311442 994.319153 161 131 146
157.712340 229.523516 987.147903 51 38 60
161.147428 60.483694 1005.434895 89 68 90
162.078536 32.896948 1008.462906 79 56 82
166.302037 -303.914022 1043.332958 101 72 90
158.302867 172.919881 991.293335 79 65 91
169.045961 -161.898768 1023.644161 67 59 81
169.045961 -161.898768 1023.644161 67 59 81
164.756846 84.606981 995.395660 137 119 137
172.570109 -203.092694 1026.635647 97 77 82
166.504300 124.565268 990.582943 55 47 68
165.179574 244.380236 975.194359 93 78 109
165.179574 244.380236 975.194359 93 78 109
170.132768 29.819629 998.706245 124 109 127
170.312202 71.138036 992.568207 86 65 89
167.622519 227.488470 974.505234 53 42 63
172.975564 191.610730 977.011204 65 49 63
172.593045 86.718386 986.504555 131 117 141
178.510737 -61.181486 1004.144478 79 59 81
178.510737 -61.181486 1004.144478 79 59 81
177.595353 -6.675357 996.637917 79 64 91
174.340928 157.937050 978.759289 131 118 142
174.908340 99.474776 983.782864 94 77 102
174.072790 235.357237 968.007183 90 65 80
175.409126 209.680867 969.052601 83 66 89
177.808344 41.294387 986.308384 134 121 144
177.808344 41.294387 986.308384 134 121 144
186.569166 -285.323930 1018.245411 136 113 131
185.590351 -87.716442 999.029827 68 56 82
188.931978 -242.622185 1013.155937 73 54 68
189.602697 -199.084246 1004.800701 138 123 146
193.128955 -288.214397 1014.435959 73 53 66
