ply
            format ascii 1.0
            element vertex 19268
            property float x
            property float y
            property float z
            property uchar blue
            property uchar green
            property uchar red
            end_header
-298.334932 472.033501 1404.755783 178 176 163
-293.339539 565.768957 1351.760960 159 160 132
-293.339539 565.768957 1351.760960 159 160 132
-293.510866 581.377840 1342.070293 158 152 143
-300.004411 504.409027 1383.973598 118 116 99
-303.107810 422.970057 1429.438114 133 133 85
-299.251437 555.991793 1353.328228 175 174 164
-296.649122 609.437275 1321.467304 188 189 191
-300.230145 542.705441 1357.268906 188 187 185
-312.856054 706.260443 1255.737400 84 88 76
-301.311612 432.574415 1417.560101 183 180 151
-315.208697 703.308105 1255.611801 183 184 183
-296.811152 439.432716 1415.253639 68 68 53
-321.540785 394.657516 1430.075264 109 110 68
-321.540785 394.657516 1430.075264 109 110 68
-304.845190 418.349409 1422.542191 173 167 119
-298.351097 524.039078 1364.224815 182 179 178
-124.435198 -83.211333 1783.465767 252 235 231
-310.165977 702.079630 1254.090691 177 179 170
-291.699934 557.250643 1344.624329 188 186 155
-331.377554 369.998050 1430.181408 142 137 91
-331.377554 369.998050 1430.181408 142 137 91
-330.117440 358.721447 1436.097336 180 182 139
-309.463525 346.831584 1448.865795 162 168 110
-305.884480 653.439331 1271.543407 210 209 208
-305.626631 667.525291 1259.605598 196 198 199
-305.626631 667.525291 1259.605598 196 198 199
-240.190339 244.550514 1522.353554 251 234 229
-320.726109 358.003378 1424.143124 88 92 74
-129.711854 385.888529 1482.854080 74 77 46
-54.870623 387.053275 1502.055645 68 72 47
-278.900814 632.659674 1272.846413 145 144 149
-278.900814 632.659674 1272.846413 145 144 149
14.258458 422.439051 1491.939545 146 146 85
4.064548 404.399061 1497.151375 67 72 61
-305.238914 295.636797 1439.212036 157 158 145
-274.362493 686.302996 1233.579159 133 137 107
6.765886 394.077086 1499.128723 178 178 171
9.687865 405.233002 1494.097424 71 77 74
-274.521565 296.109962 1446.905804 140 146 110
-13.839661 82.755733 1660.597038 249 233 227
11.795930 377.032208 1507.256699 18 18 18
20.786084 381.045723 1507.589817 185 185 185
26.256731 585.544109 1392.892265 26 34 52
31.664824 370.971274 1507.651234 111 110 66
-162.155402 299.787903 1473.515034 121 126 94
52.552438 348.752618 1524.289513 254 246 246
37.781885 585.479927 1390.405750 174 162 155
36.429578 608.084965 1375.086784 70 83 95
53.790933 331.996036 1525.076008 62 66 55
43.489262 671.844292 1331.003666 148 148 155
55.887717 306.970024 1524.670219 156 157 151
41.597557 299.809790 1519.738865 75 77 76
49.497297 672.439671 1313.982487 30 39 38
70.743775 526.848793 1329.012299 105 145 169
-457.264137 558.938932 1150.291348 237 225 221
-323.656249 548.041344 1143.825817 105 145 169
-324.591446 618.930769 1108.305359 88 92 103
-323.591185 616.562414 1097.531700 170 163 167
133.993793 892.366695 2238.290215 91 80 78
54.888183 949.900055 2084.128761 192 185 182
-940.243340 585.625982 1138.101006 31 46 57
-427.274942 489.049864 1798.443413 253 241 235
-418.186474 492.607403 1793.247604 254 244 240
-809.911251 705.509472 1208.174229 108 99 83
-397.276783 529.226875 1753.089142 119 101 50
-396.185255 515.356827 1762.843513 253 243 241
-390.208554 535.316753 1751.154900 254 244 240
-391.099167 528.657103 1753.599548 69 70 51
-408.993053 481.188250 1770.870399 31 46 57
-408.993053 481.188250 1770.870399 31 46 57
-365.200782 562.119198 1745.672417 252 243 241
-382.423329 542.259121 1730.416107 104 100 54
-388.479042 539.913607 1721.091652 90 94 60
-390.826201 515.530252 1730.018997 70 66 39
-361.871934 583.814859 1699.575615 99 99 87
-357.831955 587.114620 1698.437881 250 243 242
-385.275030 524.600315 1717.268944 160 159 146
-355.455279 590.780783 1691.568947 127 125 103
-418.754768 451.069450 1741.233635 61 81 98
-405.397081 473.098516 1732.778358 64 106 121
-355.652928 583.263683 1691.648293 164 163 154
-408.062077 460.839796 1736.333466 25 31 45
-360.236764 566.602659 1694.239044 181 182 183
-361.095166 585.593271 1669.921303 181 182 183
-363.727570 548.875237 1690.886879 183 183 167
-381.748366 505.066586 1699.056625 54 56 27
-380.587196 500.704813 1697.004128 153 143 74
-363.672447 362.803507 1799.951935 247 231 225
-369.450617 364.037585 1792.245102 247 231 225
-362.186646 371.245337 1790.109444 53 51 51
-372.838116 406.910038 1746.989059 96 132 140
-409.819555 234.229422 1820.771408 245 233 223
-393.384027 446.670341 1676.503372 74 107 113
-310.625815 780.982733 1497.934532 108 122 146
-310.625815 780.982733 1497.934532 108 122 146
-372.697401 128.318048 1921.742439 19 19 17
-383.393764 119.070554 1917.684746 191 176 120
-338.749456 130.255198 1942.320442 62 54 51
-399.178672 264.232993 1786.130905 27 27 19
-399.178672 264.232993 1786.130905 27 27 19
-400.632620 256.878400 1788.808060 15 13 13
-336.448264 131.816363 1934.365463 246 233 227
-318.131232 687.086248 1541.854000 115 123 139
-362.621498 356.785941 1744.817352 39 38 37
-395.680785 259.597445 1786.415863 151 139 91
-392.015839 274.513578 1775.592995 160 145 101
-361.319232 347.983122 1746.163750 42 44 45
-395.933342 227.908826 1799.935913 28 27 18
-354.254174 333.714533 1757.463455 24 38 60
-340.313530 134.165025 1910.556221 61 66 58
-393.090916 251.350141 1779.318047 176 157 97
-393.594384 227.777457 1795.767403 172 153 93
-395.537853 183.096778 1823.425102 111 114 71
-361.250401 393.252683 1697.970963 117 167 184
-388.828492 221.096826 1797.202873 101 93 59
-362.991858 316.127896 1747.020531 21 20 20
-381.061339 231.557631 1790.113449 150 140 85
-390.268040 179.626477 1817.857742 148 141 86
-379.866648 202.679300 1809.656525 79 71 47
-409.946728 106.801558 1848.496246 13 11 11
-357.481146 295.584321 1756.670380 181 167 114
-357.813549 472.682142 1630.283928 147 142 69
-374.925542 234.042549 1784.617043 182 165 107
-370.773888 203.693295 1805.552673 163 143 89
-386.042023 176.861215 1810.838509 164 147 102
-416.843081 93.360490 1844.453049 177 168 112
-382.982922 170.461023 1814.860725 32 24 22
-382.982922 170.461023 1814.860725 32 24 22
-413.907862 -299.545741 2117.784691 43 32 39
-422.812080 -307.819343 2113.654709 167 152 88
-363.289165 383.050251 1674.743843 147 180 184
-342.167306 297.188306 1751.490211 84 77 33
-368.679595 182.834721 1808.631706 22 20 18
-345.254230 280.819321 1754.939270 164 147 84
-403.994036 57.837373 1863.880157 156 139 82
-390.886021 -4.953047 1916.712952 172 155 94
-371.229434 109.133351 1852.710533 10 11 12
-375.331736 -193.552649 2057.401466 59 46 22
-330.638456 290.321875 1755.162048 77 66 31
-367.338753 155.139196 1818.800926 21 24 18
-380.698133 -225.479770 2073.323059 250 235 221
-385.678792 48.213285 1873.042870 153 135 91
-421.225262 -359.158397 2125.607491 250 241 211
-366.194344 150.459683 1815.361214 29 29 19
-339.139652 248.400116 1764.127541 177 167 102
-380.412555 -235.170746 2065.012169 249 232 226
-380.412555 -235.170746 2065.012169 249 232 226
-334.700680 219.214773 1784.977722 184 165 105
-334.700680 219.214773 1784.977722 184 165 105
-335.322618 181.860983 1810.085487 11 8 7
-404.091835 -347.380948 2118.102837 30 23 19
-349.924445 146.004879 1815.514565 137 118 65
-319.205499 179.932833 1815.419769 24 25 23
-349.870968 148.141015 1810.315132 182 167 99
-355.757689 333.919454 1675.820923 110 153 146
-379.388237 -327.532005 2108.371162 250 234 228
-335.837507 469.818354 1590.744400 163 167 88
-316.015625 173.208344 1805.425262 149 144 82
-354.853272 -49.798188 1924.205017 92 90 65
-277.890587 177.589738 1828.728485 90 91 53
-347.578859 -309.608173 2102.530098 41 39 23
-372.362876 -111.558008 1947.065926 9 8 8
-292.940712 150.958931 1830.029869 13 13 14
-397.511935 -254.294586 2010.873032 208 206 148
-248.459601 243.675065 1789.234734 243 226 218
-370.474744 -32.354745 1881.370354 46 42 37
-414.585161 -402.656174 2088.750458 55 56 43
-393.952465 -263.299441 2011.156845 13 11 10
-240.885949 249.362659 1782.940102 14 15 17
-442.788458 -105.718780 1866.583061 21 20 14
-375.225425 -256.620264 2012.361908 200 196 115
-361.342025 -67.293608 1896.531487 44 38 31
-304.448318 83.274174 1836.202812 52 51 40
-294.089246 99.279469 1828.911018 83 80 57
-459.209538 -100.073874 1836.161613 71 68 61
-367.539811 -53.025228 1871.877480 45 42 35
-328.126001 457.250881 1561.883926 126 121 42
-473.664188 -78.165960 1801.984787 32 29 25
-327.955532 450.926685 1561.094666 146 146 49
-371.231413 -424.583292 2099.645042 68 45 48
-370.253968 -54.058897 1857.571030 172 158 90
-324.425864 42.164075 1825.014877 23 21 18
-365.443110 -55.104136 1857.872963 167 154 80
-469.376087 -104.109120 1812.758827 83 79 29
-316.627359 44.290209 1827.327347 23 20 19
-212.643409 260.151267 1761.201477 56 59 66
-376.883554 -269.233942 1985.552788 26 23 15
-326.273632 33.633921 1824.028587 133 120 84
-327.383995 -363.399887 2079.077148 53 53 36
-321.186948 -343.895721 2069.605255 164 150 90
-471.672630 -110.571802 1808.725548 115 109 57
-376.757717 -421.606731 2076.856804 121 112 59
-389.823437 -466.648436 2094.607925 250 238 233
-340.019369 -11.533283 1835.523224 26 25 19
-294.246745 67.363060 1817.103958 23 20 20
-290.905762 78.755182 1811.542702 72 67 53
-247.690535 222.416234 1749.600792 182 160 94
-332.722855 7.161652 1826.898003 20 16 14
-241.443992 242.660093 1738.580132 26 20 15
-458.018064 -131.383371 1822.717285 181 175 103
-316.493630 -342.210817 2059.245872 173 165 109
-315.956378 34.545955 1814.095116 17 17 16
-241.366839 238.731027 1734.625435 149 129 82
-252.112818 187.157333 1757.359505 166 142 93
-325.499725 -374.209094 2063.849640 20 17 15
-276.402497 100.179899 1793.805313 61 57 57
-312.750030 -364.552879 2063.895798 131 118 76
-343.794560 -442.983866 2089.545631 172 159 109
-277.508450 79.913741 1802.640152 92 84 56
-467.053270 -113.668394 1790.992546 176 170 106
-349.792552 -268.369913 1968.274498 178 172 91
-307.503080 29.000098 1805.893898 21 17 17
-307.503080 29.000098 1805.893898 21 17 17
-298.583388 45.507461 1800.616646 144 135 69
-336.745477 421.987295 1534.130096 132 137 56
-346.800709 402.070951 1538.922596 136 141 64
-261.797285 105.230904 1786.611176 138 124 85
-470.410347 -84.871513 1758.775520 165 159 93
-283.571410 62.755698 1796.728516 23 20 20
-336.897492 -90.663904 1855.456543 178 175 95
-341.238141 326.646066 1588.476467 81 125 150
-303.784895 24.342461 1805.280495 27 24 20
-327.939034 -235.677361 1943.530655 71 64 25
-299.921393 -384.018135 2055.815697 174 159 88
-217.697906 221.285343 1730.135918 249 233 226
-347.030401 404.016924 1525.461960 148 150 116
-308.927131 -415.057755 2059.322166 18 14 12
-330.189323 -252.047443 1942.135620 213 198 113
-332.523203 -441.423368 2053.813934 171 166 107
-299.330759 0.560543 1798.392296 146 133 90
-347.669506 400.061369 1515.516281 150 152 116
-271.893477 33.713999 1794.512367 115 105 78
-271.893477 33.713999 1794.512367 115 105 78
-316.303301 -206.639934 1911.199951 116 108 52
-312.183905 -219.251132 1921.569061 188 182 113
-307.754040 -297.292709 1971.817017 183 180 120
-283.733153 -418.870640 2057.532692 158 140 92
-311.873841 -186.564207 1893.493652 168 161 108
-272.261238 -404.255962 2053.863335 173 162 109
-301.454377 -21.741726 1797.565269 112 104 71
-309.579635 -211.305261 1905.986214 109 97 51
-279.120302 2.921929 1794.207573 25 22 15
-306.916070 452.891779 1498.305130 184 176 90
-322.765994 -177.114606 1874.308205 119 111 62
-304.275250 -209.755135 1905.612755 172 165 110
-301.845026 -166.857409 1880.807877 205 192 138
-250.176644 -386.380267 2047.618675 83 72 40
-299.754858 -28.346843 1794.359589 19 19 17
-287.018538 -30.747017 1801.771927 25 21 21
-287.018538 -30.747017 1801.771927 25 21 21
-303.058743 -176.612127 1879.948044 152 145 90
-321.005702 -109.109688 1826.661301 184 180 109
-321.005702 -109.109688 1826.661301 184 180 109
-271.276736 -0.683863 1793.665695 113 107 82
-300.608444 -171.921599 1877.620506 42 40 29
-298.104620 -201.089025 1893.597603 88 76 55
-288.631368 -33.702567 1797.797203 67 66 54
-297.360802 555.470562 1432.583714 182 178 164
-297.360802 555.470562 1432.583714 182 178 164
-333.984828 276.144624 1577.985859 163 171 167
-359.386444 355.920768 1511.551285 86 122 119
-320.750713 -98.861998 1813.281441 204 200 131
-252.501750 -441.511202 2066.912079 72 67 40
-330.849123 287.856674 1565.307045 42 51 50
-169.104469 69.243991 1803.092575 58 59 39
-288.354540 -200.575686 1884.012222 174 170 119
-329.778910 271.036935 1566.589069 123 160 162
-285.252571 -199.149990 1875.842285 189 183 132
-225.403929 -315.958762 1979.167938 253 238 221
-289.159083 -96.661323 1805.039024 135 124 71
-289.159083 -96.661323 1805.039024 135 124 71
-337.987041 379.639912 1487.264347 150 151 77
-247.528481 -249.708867 1916.658401 180 179 133
-272.031879 -170.198143 1852.982712 187 179 134
-272.774529 -124.547839 1818.995476 177 166 116
-211.284256 -27.835530 1794.639206 58 58 49
-324.252987 280.869150 1538.693523 60 103 132
-324.252987 280.869150 1538.693523 60 103 132
-264.532351 -203.312445 1861.378098 174 171 119
-180.111742 22.618863 1781.722260 118 108 83
-125.024390 81.636304 1781.836510 29 27 24
-257.383561 -201.261020 1862.708664 49 47 20
-255.962873 -194.758964 1859.072304 180 170 119
-262.105870 -138.469660 1821.280098 185 184 115
-204.808998 -232.841372 1912.911224 86 83 43
-173.392022 37.305382 1770.576096 17 15 16
-217.241716 -69.999892 1804.632568 18 15 16
-177.918684 13.799076 1779.108810 15 12 14
-222.566485 -290.518069 1927.860832 248 234 226
-179.976237 2.221085 1779.748535 17 13 14
-335.822058 374.743319 1463.081837 136 134 107
-133.839202 60.866594 1769.348717 89 89 63
-133.839202 60.866594 1769.348717 89 89 63
-313.926482 418.856049 1442.123127 125 124 83
-229.161167 -94.865674 1789.661407 193 180 122
-316.853571 414.461231 1440.647030 74 77 48
-158.722770 29.930475 1759.947014 121 109 72
-172.373366 -7.362127 1772.027588 12 11 9
-133.716381 63.701075 1751.031113 127 118 84
-298.564100 489.179325 1402.595234 114 115 95
-120.665348 82.969248 1742.773819 104 92 59
-300.494957 453.246069 1420.194721 83 86 36
-174.571466 -48.807737 1781.274605 147 136 84
-128.657317 58.300757 1746.182060 124 107 75
-100.902390 133.006287 1718.231392 138 124 68
-306.195498 423.621130 1427.185822 133 131 78
-300.733495 462.388134 1407.194138 142 144 109
-152.333081 18.851413 1749.144936 58 51 42
-152.333081 18.851413 1749.144936 58 51 42
-300.168347 490.396595 1390.908146 167 164 158
-293.876982 566.092396 1351.226330 157 158 134
-299.062467 556.287432 1353.264141 173 173 161
-323.595142 395.343161 1428.457069 113 111 63
-147.078204 16.146977 1750.179672 68 60 49
-294.841456 560.791492 1351.132488 100 102 82
-294.841456 560.791492 1351.132488 100 102 82
-297.507477 501.935339 1382.051468 166 162 144
-299.918795 543.083334 1357.213593 180 179 176
-299.753857 516.225052 1371.452713 97 96 82
-296.774364 554.198074 1351.494122 98 106 88
-132.543969 29.770428 1746.274185 130 122 84
-295.219183 467.680073 1399.425983 133 126 122
-295.227242 514.913273 1367.576408 190 187 171
-78.039628 101.828873 1728.877068 171 154 97
-297.216153 546.861076 1347.959042 148 149 137
-281.275368 448.790121 1412.379837 206 202 181
-281.275368 448.790121 1412.379837 206 202 181
-258.789301 447.070789 1425.557804 170 171 161
-332.203007 362.096477 1428.532410 90 93 66
-139.263546 -38.167518 1766.942215 176 166 101
-293.524122 408.958292 1423.885632 48 51 28
-281.822562 577.787781 1335.436726 155 166 166
-317.917752 381.263113 1423.395920 190 180 141
-288.005686 610.052776 1313.379765 195 197 201
-324.582815 338.883662 1442.521572 158 156 121
-278.725529 583.848238 1332.619381 200 204 196
-292.204714 544.823074 1345.730209 167 169 159
-286.498475 519.200277 1363.271904 122 117 120
-283.006048 557.258511 1343.733120 137 138 123
-283.006048 557.258511 1343.733120 137 138 123
-294.050360 537.685251 1346.333504 128 125 129
-328.290796 356.538987 1425.603485 179 179 173
-100.570118 -30.797699 1772.369766 22 21 21
-308.397365 369.101238 1425.617218 76 81 49
-324.138188 326.775837 1439.352989 96 99 90
-107.541668 -54.038548 1775.206757 249 234 228
-305.632925 667.925978 1259.351444 194 194 196
-305.632925 667.925978 1259.351444 194 194 196
-334.446478 321.892548 1433.204460 56 60 56
-295.982027 642.105961 1276.561356 211 209 209
-338.871717 318.851209 1429.127216 61 66 60
-338.871717 318.851209 1429.127216 61 66 60
-345.172977 300.518847 1432.301712 65 73 74
-345.172977 300.518847 1432.301712 65 73 74
-164.223230 421.795273 1468.928337 115 111 70
-182.543790 383.806801 1470.881939 70 71 41
-125.841904 426.487255 1479.836655 171 168 119
-132.534456 422.895384 1477.819157 111 109 63
-261.774182 367.385435 1433.739853 63 64 42
-296.155953 684.605455 1241.195583 113 114 112
-293.302345 667.391777 1251.281071 121 115 110
-157.082593 394.297457 1476.172352 162 154 101
-291.591883 665.386295 1250.017357 183 179 173
-127.661526 417.742109 1477.199173 177 178 127
-220.442963 339.563894 1465.692997 47 48 35
-279.940271 633.233738 1271.922970 143 144 149
-112.370384 424.575806 1479.317379 96 102 59
-112.370384 424.575806 1479.317379 96 102 59
-75.891918 522.632980 1440.551662 140 140 150
-75.723678 424.831200 1491.485023 89 93 60
-66.242981 426.494598 1493.148136 108 109 64
-119.615376 376.884055 1484.001541 145 140 101
-173.817611 330.957794 1476.264095 90 91 55
-133.612514 367.989349 1473.903084 72 74 43
-19.718060 469.521999 1474.716473 123 122 111
-19.718060 469.521999 1474.716473 123 122 111
-151.735306 308.162451 1476.225185 47 50 36
13.471422 416.998625 1495.580578 179 177 162
39.668417 425.268507 1502.242661 251 237 233
-4.996819 378.036094 1501.267433 138 140 98
27.659974 410.117006 1498.862076 96 97 48
22.010674 645.918274 1366.290092 168 168 163
53.302073 341.532207 1531.705284 91 84 65
51.394504 375.074220 1510.189247 253 250 247
55.837381 368.432832 1514.137554 100 97 86
-8.710340 306.174612 1507.557487 144 144 96
-143.600261 318.377280 1430.556679 79 81 57
67.655474 315.265346 1530.565453 120 124 118
49.508092 306.355262 1523.397923 143 147 138
84.867305 318.954253 1532.721710 253 247 242
75.505471 315.928721 1529.086113 253 247 242
110.617113 570.303106 1396.536732 99 146 171
227.579975 543.602324 1419.824409 117 155 178
-53.442633 596.286774 1212.422562 204 204 205
-361.480331 598.839378 1070.343876 55 66 69
-275.980473 801.712704 1929.948807 212 209 206
-307.060266 791.876078 1879.226875 212 209 206
-362.083006 774.476433 1789.473152 212 209 206
-386.192536 766.855288 1750.166321 212 209 206
94.841921 889.269447 2356.692886 130 135 147
-409.180927 759.611464 1712.687111 212 209 206
43.978015 874.338722 2280.336189 130 135 147
-432.052612 752.398014 1675.416946 212 209 206
-2.560679 860.716057 2210.467529 130 135 147
-451.922703 746.109629 1643.061829 212 209 206
-87.022972 835.766315 2083.914948 130 135 147
-124.418795 824.809647 2027.844620 130 135 147
-361.279202 826.024055 1553.131866 196 183 145
-361.595225 811.642265 1556.374645 128 130 130
-393.741536 524.323845 1758.295059 249 242 241
-381.209064 550.036192 1739.948845 251 240 237
-373.558164 561.193943 1722.378159 100 99 83
-367.920399 570.133543 1715.435028 254 243 242
-367.752934 565.437889 1716.626740 84 82 62
-363.521481 569.986868 1711.017227 126 120 64
-347.799516 685.606050 1629.522705 130 138 132
-381.186581 418.216848 1811.136055 250 238 236
-348.294282 663.158464 1643.795204 82 91 82
-396.324992 421.142960 1784.142876 250 238 236
-341.929412 453.580284 1823.809814 25 37 45
-348.919272 631.817532 1659.879494 129 137 123
-378.850222 523.762703 1712.910080 189 189 188
-366.536474 557.327890 1698.799515 157 165 174
-382.148480 507.738638 1713.674545 146 143 88
-382.148480 507.738638 1713.674545 146 143 88
-378.754544 510.826302 1702.452278 148 141 74
-356.710649 561.934185 1677.537346 197 197 177
-357.156420 556.105566 1681.448555 197 196 169
-375.319624 496.832943 1692.217255 78 83 30
-410.454178 261.185431 1809.951973 232 218 211
-407.184792 253.298330 1819.884491 232 217 211
-408.934689 245.161891 1821.631813 234 218 211
-407.673979 284.139490 1783.575439 55 55 37
-406.580782 240.951967 1815.269661 92 84 50
-406.167507 275.673413 1785.946465 191 172 117
-411.252117 254.152584 1792.628670 181 171 111
-307.893324 781.445694 1500.673294 112 124 148
-307.893324 781.445694 1500.673294 112 124 148
-404.772139 255.849600 1792.915344 19 18 17
-394.929862 284.891605 1777.763367 188 178 112
-396.749711 272.930241 1782.248306 22 24 15
-394.096661 278.377914 1779.297066 17 15 14
-397.799635 190.684700 1838.958359 237 220 213
-403.966284 216.358852 1810.570717 10 10 9
-395.606995 259.746933 1786.403847 150 135 93
-396.071506 185.815954 1841.002655 74 61 40
-399.860549 195.741892 1828.340530 37 36 25
-401.879263 220.747566 1805.913544 196 180 126
-400.385427 417.410898 1656.601524 71 103 109
-386.704612 281.929612 1774.325371 22 25 29
-392.292571 256.009030 1787.340546 12 11 8
-399.834180 206.198335 1813.368988 177 161 100
-364.442205 388.686991 1710.769653 62 92 107
-384.771323 239.057374 1791.353798 107 96 41
-384.771323 239.057374 1791.353798 107 96 41
-384.961653 219.277573 1802.729034 81 73 43
-371.737647 -44.080293 2012.003899 245 228 223
-378.248787 262.541842 1775.253105 95 81 39
-381.532073 210.056329 1810.423088 62 52 34
-341.782761 495.940208 1638.169289 109 110 39
-380.113816 210.809970 1804.939651 158 142 87
-337.721300 510.213614 1626.856613 194 193 129
-386.217737 191.535628 1811.034775 14 13 11
-352.397156 472.220135 1636.490440 145 139 67
-358.796644 340.014124 1727.192497 38 44 49
-361.699462 378.443813 1693.916512 64 102 119
-403.956079 81.545383 1867.335510 173 161 109
-384.389472 176.451623 1812.945175 169 146 93
-388.737583 -53.116739 1971.838188 170 150 89
-353.818822 286.578155 1757.241821 155 146 92
-353.883576 320.432949 1730.099678 29 25 25
-354.205298 467.071772 1620.247650 148 142 66
-354.205298 467.071772 1620.247650 148 142 66
-367.874670 224.177003 1783.875084 72 70 37
-433.662653 -334.298468 2123.048401 249 237 229
-371.519804 168.718433 1816.622543 26 29 21
-359.232712 309.675193 1722.935295 179 171 123
-418.535805 -312.700868 2114.491653 54 43 26
-341.003227 195.998716 1824.203491 152 136 90
-395.306611 47.535682 1872.652435 82 69 38
-354.692626 332.996917 1707.472420 47 60 75
-418.790007 -328.138995 2120.694542 108 94 50
-370.143747 164.114225 1813.463020 56 59 46
-402.531242 -13.983755 1902.848816 169 154 97
-402.531242 -13.983755 1902.848816 169 154 97
-344.140625 134.583879 1852.644920 17 18 19
-342.261910 199.034810 1800.639153 68 59 29
-353.440738 162.409353 1811.987495 121 115 71
-357.096815 152.301502 1814.524078 41 39 26
-377.559757 20.600244 1885.887909 94 87 63
-332.529259 249.140787 1766.045189 113 104 49
-380.357885 -34.844121 1919.384003 118 104 59
-381.935072 -46.842402 1925.242043 114 102 55
-375.623560 -22.146572 1912.637329 109 99 69
-411.389351 -373.351192 2118.315315 252 241 212
-328.852654 142.470944 1829.694176 50 42 17
-380.726385 -325.185013 2105.534554 250 234 228
-368.703055 -10.177425 1892.692566 88 84 64
-335.452247 465.744114 1589.536381 159 159 69
-776.966763 488.650703 1111.666107 25 37 45
-277.644515 207.898712 1811.201668 247 231 227
-380.022240 -343.547869 2090.085983 249 235 229
-384.947944 -339.559555 2080.708313 249 235 229
-371.077108 -21.019262 1872.922516 151 150 105
-380.841160 382.334089 1583.079529 35 45 47
-276.018214 185.696566 1822.212601 16 14 10
-267.086148 190.784132 1825.642014 251 236 230
-267.086148 190.784132 1825.642014 251 236 230
-366.690588 -18.966630 1870.052338 13 13 13
-425.600386 -434.121513 2098.188591 250 239 233
-247.396088 257.845378 1797.385025 246 228 221
-300.453210 123.467624 1836.576653 14 16 16
-328.773594 461.677647 1571.687698 126 126 47
-330.685449 458.235979 1569.588089 172 166 88
-342.337894 -100.214529 1937.006569 8 7 7
-353.535342 -88.198304 1910.874557 107 107 74
-234.985495 263.092160 1786.927223 245 229 222
-326.414728 -347.663927 2110.339737 15 14 11
-344.155002 336.531925 1626.791763 57 99 113
-378.689790 369.633293 1567.907047 53 77 89
-249.301624 238.798022 1779.362869 60 56 31
-370.734286 -51.880360 1857.004738 181 166 106
-468.997908 -117.941761 1800.748825 131 128 71
-474.614000 -95.861506 1772.930527 114 109 58
-324.794006 42.364487 1824.528694 24 21 20
-339.756250 -391.910028 2097.482491 165 143 83
-287.855625 107.960904 1811.615562 75 66 50
-321.853828 -340.211272 2074.701309 115 109 68
-389.167047 -463.896465 2091.187859 252 242 225
-375.743413 361.308813 1552.474880 102 108 85
-471.346521 -84.270167 1757.471848 168 163 95
-316.797829 -353.804207 2083.738708 21 18 13
-367.922473 -251.683974 1965.460205 19 15 8
-327.901649 16.155799 1824.591827 65 59 41
-366.001225 378.109026 1546.672440 73 107 118
-321.603322 -337.093878 2063.818169 71 62 48
-334.807563 -6.936580 1831.484795 23 22 19
-253.168488 225.043511 1754.618263 61 53 28
-253.168488 225.043511 1754.618263 61 53 28
-363.221288 -423.351336 2079.664612 167 147 96
-371.888566 -260.803103 1960.670280 165 148 88
-331.429458 -3.164783 1828.462601 17 16 14
-247.102427 230.321670 1753.104973 66 58 29
-336.240482 -15.828761 1831.072998 104 97 73
-258.897662 131.016612 1807.100487 138 115 69
-245.118904 393.742371 1645.142746 150 153 119
-361.924887 -438.088036 2084.147835 54 44 39
-283.106971 108.784091 1797.281265 152 135 91
-319.820619 443.560123 1539.173985 117 118 40
-312.788820 465.028286 1531.637573 117 117 56
-298.263288 63.399976 1808.684921 85 82 51
-298.263288 63.399976 1808.684921 85 82 51
-376.218176 -473.790550 2087.650681 251 237 235
-246.631384 222.359848 1750.662231 178 161 93
-335.709167 421.746540 1535.256863 132 136 57
-250.212455 209.063387 1754.684639 151 133 77
-316.382051 27.679363 1811.515427 136 120 76
-320.472336 18.084444 1812.768555 129 113 73
-315.838432 34.071475 1806.510353 18 17 15
-354.433489 -254.857159 1958.394432 177 164 87
-341.613388 326.644564 1588.117313 82 127 155
-309.048176 36.804298 1807.694435 152 138 101
-242.156434 218.340921 1749.447823 189 170 107
-308.699965 -368.356252 2070.123100 139 131 81
-341.250515 328.963089 1582.187271 53 91 110
-250.165367 186.697078 1759.496689 162 140 90
-316.289806 453.512287 1522.871017 195 188 134
-296.696711 -341.172028 2060.408783 177 175 108
-320.783544 0.583200 1813.071823 11 11 12
-334.815431 -221.625090 1944.425011 35 33 33
-346.602464 -428.952360 2067.910385 135 125 69
-307.376075 28.853953 1806.096268 20 17 18
-307.376075 28.853953 1806.096268 20 17 18
-238.118505 216.501784 1748.042679 183 164 96
-346.153736 -246.129036 1946.306419 206 196 122
-330.141902 -220.214200 1942.172813 132 121 71
-322.133803 -397.640705 2062.326431 29 24 20
-304.729724 -366.962981 2057.373810 167 154 85
-335.582066 313.051653 1586.894131 153 167 143
-283.497763 62.707287 1796.825981 23 21 19
-296.425009 43.314555 1796.531296 44 40 30
-324.813247 -167.518628 1906.620216 51 46 21
-337.869263 -433.154535 2065.233231 154 139 71
-335.180020 -454.810953 2076.170349 195 184 117
-265.594745 95.793444 1785.433006 110 100 69
-330.115604 -245.487046 1945.172501 52 50 13
-257.725906 100.659084 1788.294029 69 64 49
-320.240474 -172.045290 1905.662918 61 55 23
-264.897776 89.025646 1788.020515 61 55 32
-323.158383 -175.861907 1903.804398 169 159 103
-318.604589 -15.418558 1804.253769 159 139 86
-318.604589 -15.418558 1804.253769 159 139 86
-328.703284 -201.049042 1913.940811 188 181 110
-269.099522 79.802978 1788.075829 75 65 45
-328.638530 -473.975706 2088.416290 251 237 231
-317.489958 -26.607376 1809.496689 67 57 40
-318.521261 -168.353117 1896.429825 173 160 103
-319.525766 -180.265236 1902.388763 180 168 109
-319.729424 -198.789907 1911.961746 189 185 107
-323.041439 -482.851267 2083.482742 250 236 230
-310.150909 450.381041 1498.790646 113 116 45
-310.150909 450.381041 1498.790646 113 116 45
-302.349567 -423.704910 2059.956741 61 56 30
-312.937188 -172.098696 1890.291023 135 129 87
-272.569537 33.787984 1793.823624 116 105 75
-316.622114 -201.695681 1902.607155 190 182 101
-290.756249 -421.496964 2062.237930 126 114 82
-310.510111 451.770639 1491.453934 183 176 94
-277.368069 9.679335 1795.058632 27 25 24
-329.308438 314.840436 1555.913162 99 146 159
-264.760852 24.455716 1794.326210 86 81 60
-105.024338 98.505759 1890.682793 29 24 25
-306.526661 -497.332430 2084.440422 250 236 230
-311.787987 -260.306573 1930.498123 75 66 35
-279.594183 2.427065 1793.998146 45 39 31
-294.816804 -444.256067 2060.255241 189 177 89
-274.949861 -432.940483 2070.642853 24 19 19
-321.519637 -115.123415 1828.236198 139 127 66
-317.302537 -51.642531 1791.303635 14 12 12
-307.428408 -272.678113 1937.649727 184 178 101
-323.316646 -103.403795 1817.159271 195 188 118
-289.922476 -29.361278 1798.304176 25 21 23
-250.836802 -375.977826 2048.686600 180 163 105
-288.947272 -250.570798 1936.418915 178 171 116
-254.111004 -373.029971 2043.055916 180 163 105
-254.111004 -373.029971 2043.055916 180 163 105
-292.227697 -245.613503 1929.541969 178 171 116
-292.227697 -245.613503 1929.541969 178 171 116
-243.926787 -358.300662 2042.353058 68 62 35
-250.334740 -408.516026 2067.063713 162 144 93
-272.123098 -1.070140 1793.049240 100 92 67
-298.284674 -178.913164 1875.719261 166 158 99
-299.022269 -214.884019 1891.200829 189 183 124
-338.410449 383.025813 1485.579777 182 182 127
-274.434042 -284.016752 1950.169945 32 26 12
-274.434042 -284.016752 1950.169945 32 26 12
-336.393356 384.867287 1482.958126 86 86 57
-286.317611 -229.388762 1902.559090 121 112 65
-270.045948 -281.160760 1945.500183 52 47 22
-270.045948 -281.160760 1945.500183 52 47 22
-313.322282 440.944815 1460.118675 169 168 130
-279.738045 -209.272265 1882.918739 122 113 71
-322.344279 256.333113 1560.520649 109 151 142
-288.610101 -88.467598 1799.606133 135 124 72
-326.108599 281.279755 1536.843491 56 100 126
-323.165894 249.644136 1554.815292 64 67 66
-182.652366 43.352568 1796.289062 11 9 10
-356.558919 319.159651 1477.629185 56 90 97
-266.103101 -206.053448 1868.408966 178 173 125
-336.924219 378.428173 1455.074310 73 78 59
-318.990183 246.507215 1548.425961 98 119 113
-183.528960 35.505095 1789.307976 11 9 10
-320.679140 410.476828 1447.815323 99 101 64
-219.593263 -314.833641 1967.565536 247 231 225
-313.937020 250.151658 1546.504498 149 172 130
-263.943505 -137.812257 1819.272614 188 183 119
-257.486057 -201.806831 1862.859917 45 42 21
-254.844046 -195.975327 1860.673141 180 170 116
-308.330846 450.419188 1429.973221 115 114 98
-176.499927 47.094080 1776.223946 28 30 23
-176.499927 47.094080 1776.223946 28 30 23
-180.311847 42.179090 1775.117683 106 106 68
-251.195860 -213.081527 1866.915321 125 119 71
-313.860250 415.870428 1438.582420 120 125 70
-313.860250 415.870428 1438.582420 120 125 70
-334.445214 375.155878 1444.353676 157 157 115
-299.597716 604.026318 1335.945892 202 203 204
-159.171438 58.535260 1775.020027 72 72 48
-249.279618 -116.133618 1800.895309 172 165 119
-299.295950 489.469862 1401.827431 119 118 104
-238.338923 -73.819381 1783.469963 165 161 96
-300.278115 453.222799 1420.388603 84 89 33
-295.227242 569.232035 1356.078720 118 121 86
-237.797952 -85.112542 1783.264351 151 137 82
-205.243444 -42.253336 1784.469986 102 93 61
-301.398349 501.489210 1386.568546 177 173 152
-327.910089 374.179626 1439.252186 82 78 43
-307.373071 423.603344 1426.217556 128 128 66
-303.640199 455.371857 1410.399342 190 188 162
-181.379068 -4.305338 1777.585793 108 108 86
-181.379068 -4.305338 1777.585793 108 108 86
-300.127006 556.284904 1352.391148 171 172 155
-307.027459 428.304338 1420.736217 153 150 118
-175.285184 28.236851 1761.225319 141 130 86
-288.897038 499.135637 1391.928673 123 119 103
-136.219490 66.966641 1768.517303 18 17 16
-289.075685 570.979404 1347.842216 86 91 49
-287.777472 556.242657 1357.005310 173 172 140
-147.388482 66.164464 1755.204964 89 90 55
-294.250631 439.690685 1416.675663 84 84 69
-288.777447 587.083387 1335.278511 186 187 146
-290.024805 576.318550 1339.636803 190 188 178
-290.024805 576.318550 1339.636803 190 188 178
-181.501269 -38.498363 1782.738304 105 101 79
-178.870916 -30.708280 1779.364967 27 22 21
-322.566819 349.677444 1438.880920 169 171 115
-137.043107 60.283339 1755.203247 54 47 29
-127.474642 85.275573 1748.224831 133 118 72
-284.280729 461.738110 1404.534721 210 206 177
-75.684226 151.074147 1751.429176 98 85 53
-292.138910 431.996536 1413.489342 191 190 169
-299.415922 540.839863 1344.543076 176 180 182
-102.196896 166.331387 1718.316650 164 144 88
-294.749260 533.300543 1352.376747 190 189 175
-100.184977 173.711658 1714.854050 70 62 38
-168.081045 -0.465531 1758.969116 120 103 56
-101.487088 169.047916 1713.134956 177 156 93
-101.222992 161.320996 1716.788101 83 72 53
-283.747029 604.300308 1316.136074 137 140 147
-96.922261 173.881531 1710.400963 169 153 88
-283.499861 413.533020 1424.035358 45 48 36
-122.590816 83.815372 1740.762711 95 77 49
-316.570330 367.594457 1423.130417 162 159 109
-296.967506 400.753212 1419.244289 73 73 39
-317.356968 363.173842 1423.572254 166 158 117
-132.960153 53.615588 1746.873665 42 36 29
-162.386775 -45.299062 1779.260635 165 153 97
-151.725388 11.056267 1754.620743 134 121 86
-152.295673 18.768607 1749.214363 58 52 45
-282.948852 549.627352 1342.975330 179 178 174
-150.867653 23.727514 1746.995163 151 135 89
-119.180357 73.996675 1741.634178 89 76 48
-142.685056 27.731186 1748.550797 15 14 15
-276.983953 594.614124 1319.917488 139 137 147
-85.058719 177.442956 1705.972290 187 169 101
-293.468642 639.630365 1276.996422 168 171 173
-302.230573 668.816948 1253.440571 137 133 141
-158.171916 -11.559059 1751.329231 160 147 99
-272.465253 595.856857 1317.999458 213 213 206
-300.807452 363.593411 1426.531792 142 140 118
-355.576563 288.187170 1425.351429 68 74 72
-355.576563 288.187170 1425.351429 68 74 72
-84.312862 173.091686 1703.781891 113 99 49
-149.405146 -35.818672 1769.674492 162 153 107
-155.975902 -18.584807 1754.608536 32 30 21
-110.691798 75.206089 1735.813332 144 132 80
-154.034376 -15.004499 1751.063347 25 23 17
-154.034376 -15.004499 1751.063347 25 23 17
-76.160836 180.235875 1702.245331 65 57 25
-106.597173 83.283907 1732.052040 77 65 52
-295.290756 377.144027 1418.135071 160 151 142
-148.782563 -9.595577 1748.831749 19 16 19
-148.782563 -9.595577 1748.831749 19 16 19
-288.017535 634.508657 1277.520084 221 219 216
-288.304877 634.502316 1277.218533 221 219 216
-67.036158 171.711922 1706.047440 182 163 100
-196.980166 566.068411 1383.785725 122 123 124
-120.689654 42.822438 1735.733986 150 133 85
-54.428977 -150.060773 1895.170784 244 229 226
-56.694561 -132.117689 1882.283211 250 234 229
-133.356500 -3.898894 1749.458885 66 58 53
-143.869424 -17.596000 1746.696854 168 153 98
-190.536106 538.686562 1400.537491 203 196 168
-210.601139 397.684050 1463.409996 84 86 52
-210.601139 397.684050 1463.409996 84 86 52
-57.959569 176.394391 1705.000305 130 113 52
-55.090171 -170.277917 1899.752045 143 133 67
-53.666788 -133.763754 1879.000664 114 97 71
-53.666788 -133.763754 1879.000664 114 97 71
-86.098897 68.571687 1740.755844 166 148 92
-93.222457 77.796888 1729.803085 126 108 64
-56.752908 165.068769 1709.103775 147 129 68
-255.627203 337.188530 1457.835960 59 61 45
-90.569049 72.603786 1731.847382 178 161 102
-179.268634 572.383308 1385.249138 119 114 117
-279.799581 633.430147 1271.922874 147 148 153
-62.890989 127.176225 1718.615150 161 144 87
-173.797977 425.288916 1467.599297 180 178 135
-173.797977 425.288916 1467.599297 180 178 135
-847.295189 479.595423 917.544937 114 117 49
-80.683136 61.662972 1736.886406 93 76 41
-101.657009 -29.811049 1771.047401 24 20 21
-165.207720 577.836037 1385.254574 140 142 146
-79.245645 54.735494 1738.678932 121 102 57
-198.683858 384.550786 1464.405346 63 65 41
-102.830112 -13.327700 1755.799866 63 51 34
-269.673538 305.228543 1448.087502 69 82 65
-175.787759 393.818498 1470.578957 154 149 108
-178.706729 383.938789 1473.769188 69 74 38
-144.458139 410.632658 1484.813786 177 173 125
-276.206470 297.230291 1445.299625 134 138 97
-139.624774 586.313581 1388.151836 147 148 158
-148.018670 399.740434 1479.731369 124 120 72
-201.154041 340.157986 1470.596504 41 42 28
-181.638157 376.312327 1465.215492 149 146 103
-181.638157 376.312327 1465.215492 149 146 103
-140.035641 400.842667 1478.612518 119 115 68
-117.748308 428.248358 1479.920387 160 163 115
-242.089510 299.301338 1451.442719 128 133 93
-153.762567 376.628208 1475.185966 160 157 97
-103.314853 539.829731 1423.322964 141 144 153
-102.044094 571.694183 1404.995251 141 140 147
-102.044094 571.694183 1404.995251 141 140 147
-172.608507 327.465177 1468.599224 31 32 28
-62.767696 427.148581 1491.015434 95 98 47
-48.980030 530.594635 1443.203640 157 162 171
-52.404475 573.533297 1418.200970 172 171 178
-116.194534 346.855283 1489.755630 147 143 86
-48.500347 540.750456 1436.556816 154 153 161
-48.500347 540.750456 1436.556816 154 153 161
-46.694109 521.766520 1447.052193 151 153 161
-63.870895 350.792050 1521.315575 139 142 106
-163.161790 301.136971 1472.276306 119 126 77
-42.543009 651.893663 1376.064014 162 166 175
-42.543009 651.893663 1376.064014 162 166 175
-58.571887 379.274154 1500.918579 121 126 91
-58.571887 379.274154 1500.918579 121 126 91
-152.331471 302.874398 1469.247055 117 128 80
-19.145134 470.841551 1474.482536 123 120 109
-19.076684 407.662201 1505.411339 173 168 95
-34.767768 381.821012 1500.895119 146 143 73
-49.808732 349.526262 1503.623295 151 147 86
-42.082182 363.199854 1494.544029 178 179 130
-26.892334 371.506524 1500.894737 64 68 41
-78.206486 312.012577 1490.199089 53 57 43
-84.875685 304.268336 1489.095974 120 122 107
33.350644 441.551399 1492.662811 253 245 240
31.447443 505.074310 1457.028866 188 186 184
-29.829633 305.630231 1504.775238 139 139 94
-9.278135 324.419856 1507.547760 172 174 128
54.915398 370.385718 1512.649059 95 94 88
50.213444 665.079594 1336.549091 158 160 162
82.921654 307.050896 1527.533150 251 241 236
467.685699 629.618883 1612.573051 213 202 191
-198.338032 569.653559 1136.097145 213 202 191
-367.975998 553.954029 1013.102055 213 202 191
-461.553097 736.880922 1591.379452 103 110 118
-461.574602 736.858892 1591.346264 103 110 118
-460.700178 734.559059 1592.759800 73 81 95
-460.700178 734.559059 1592.759800 73 81 95
-451.573324 739.958763 1589.665127 225 221 221
-447.713995 747.209501 1586.846066 226 221 222
-451.408911 721.174431 1601.178360 219 214 215
-461.622524 700.395489 1594.337559 212 210 214
-401.804543 777.408123 1615.662193 173 166 163
-433.672810 733.430052 1599.470425 117 124 135
-450.421238 701.918316 1601.491547 216 212 212
-438.121510 710.273886 1611.227798 167 171 183
-426.948547 711.765862 1622.433662 201 200 202
-426.948547 711.765862 1622.433662 201 200 202
-391.583109 762.416506 1630.118561 37 37 31
-654.001570 699.658680 1210.733032 192 184 182
-427.304125 702.832270 1614.506531 223 218 221
-364.907265 745.475769 1653.432655 118 127 151
-383.831263 716.008711 1645.821953 209 205 204
-371.296954 803.663445 1577.362251 152 159 121
-661.908531 630.751324 1228.256226 201 200 200
-355.539274 745.224094 1647.591400 218 215 217
-645.210886 651.690626 1228.063202 73 81 95
-339.634562 753.011370 1647.280121 225 220 221
-336.721754 734.283113 1663.015556 221 215 214
-405.835915 491.132355 1777.728653 66 106 124
-386.816764 532.892752 1766.035652 243 234 229
-388.828754 519.038963 1743.961334 151 155 98
-380.308366 541.779900 1734.692383 102 103 67
-364.678216 574.406385 1722.447777 250 241 241
-361.769032 571.499491 1725.391769 253 241 237
-350.614047 669.022465 1647.660255 193 195 192
-351.667356 643.232059 1670.354652 138 136 117
-333.672595 657.341480 1682.479286 165 166 166
-379.705596 540.321016 1719.358444 176 173 169
-379.826713 536.159801 1720.964622 172 172 169
-348.685288 624.833918 1684.519958 160 157 149
-358.692360 575.343037 1710.597801 148 147 116
-351.468658 615.412951 1683.880234 144 144 135
-401.993132 394.601488 1807.042503 253 244 243
-401.993132 394.601488 1807.042503 253 244 243
-351.295972 602.560377 1691.737938 163 157 141
-351.114154 608.852863 1682.631683 153 155 144
-351.176715 596.971130 1693.145561 131 135 133
-408.373117 451.444578 1729.944992 58 82 95
-365.345693 553.789282 1703.133011 174 177 178
-365.345693 553.789282 1703.133011 174 177 178
-376.041770 517.151642 1718.178940 28 31 26
-360.892892 555.770302 1697.428131 20 21 22
-375.582290 511.045504 1707.275581 149 149 86
-362.298369 539.278126 1701.628685 180 181 165
-356.585097 568.580437 1680.827141 138 140 121
-380.138516 500.676632 1704.136467 158 156 95
-346.819139 615.356922 1650.461388 200 200 190
-365.221763 376.861596 1795.652962 251 244 240
-365.221763 376.861596 1795.652962 251 244 240
-401.477098 243.472528 1851.294899 226 209 204
-364.501786 363.596439 1797.265244 251 240 240
-362.131667 370.677447 1791.263771 55 54 53
-401.621056 282.894516 1801.173019 96 93 64
-306.958127 781.964159 1501.612759 116 130 152
-306.958127 781.964159 1501.612759 116 130 152
-306.958127 781.964159 1501.612759 116 130 152
-400.035477 293.523717 1788.918495 91 83 65
-351.979661 511.270905 1670.179176 171 169 93
-390.982556 299.403739 1792.290306 14 14 14
-401.119900 289.694953 1781.572914 169 156 111
-403.613472 274.953818 1790.364456 186 169 116
-402.752924 234.746695 1822.680283 56 57 43
-410.619116 220.993662 1820.154381 18 16 13
-398.143864 270.866132 1787.835312 20 20 12
-362.843657 485.838223 1653.155136 137 145 65
-398.417497 258.119035 1794.427490 51 47 30
-392.136741 277.934194 1782.547760 16 13 11
-423.178768 19.355707 1955.826569 242 228 222
-393.885040 259.439921 1789.185143 145 137 99
-402.169514 230.986214 1800.699234 25 24 21
-359.642792 355.017591 1754.003716 55 58 61
-392.659140 411.748934 1654.736900 93 112 105
-394.202948 180.096078 1848.084259 226 213 205
-392.858648 175.355160 1843.997765 233 216 207
-360.285378 309.523153 1777.915001 49 67 85
-377.176523 181.501758 1861.148071 88 87 49
-393.346786 214.937353 1807.696152 154 142 91
-350.201154 143.206370 1928.255463 229 213 207
-358.761239 382.055998 1712.453842 56 94 108
-390.426302 405.934048 1642.647934 116 124 100
-379.283881 251.036024 1785.391235 97 80 30
-354.193354 472.256374 1633.901405 147 138 73
-391.267729 116.370118 1875.231361 14 13 12
-335.080767 514.021206 1623.463440 118 126 61
-368.448925 277.694559 1770.896530 100 94 57
-354.606414 344.632649 1730.903244 104 133 122
-356.520677 339.897203 1730.515671 44 50 51
-385.338497 191.344440 1812.437820 14 11 10
-375.862980 233.163714 1790.526009 176 159 105
-340.122986 488.302183 1629.880333 163 165 92
-383.283234 117.840254 1869.282341 14 12 13
-353.501415 467.124987 1621.191597 151 144 70
-337.154794 488.374758 1625.729942 114 116 51
-381.061935 175.646436 1818.290710 171 145 94
-375.594711 187.292874 1812.371826 22 20 12
-367.631650 217.118359 1794.206047 117 108 66
-365.649605 223.549652 1787.468338 75 74 38
-333.493233 504.086876 1599.076080 115 120 65
-333.493233 504.086876 1599.076080 115 120 65
-355.608082 316.622877 1716.366768 157 155 104
-355.433202 226.434755 1789.233017 143 132 80
-391.224003 72.451806 1863.852501 52 47 23
-357.927823 216.267681 1791.528511 149 140 85
-353.276515 191.005433 1817.071152 140 121 74
-410.418701 -302.360845 2124.591637 46 29 34
-425.875568 -324.955297 2120.826149 101 84 32
-352.425098 209.202766 1793.956757 173 160 100
-378.492332 90.998489 1849.577713 169 152 95
-399.138689 -10.202873 1901.941109 73 56 34
-356.340551 309.455299 1704.504776 146 145 77
-349.194646 124.531853 1859.499931 111 107 103
-326.681924 272.390270 1765.254211 164 146 85
-339.783788 128.218997 1861.522675 102 95 88
-336.144996 250.470257 1767.672348 166 159 94
-336.262751 250.224042 1767.675591 166 159 94
-334.973097 115.498304 1875.200653 85 80 54
-333.219576 256.658554 1764.867973 83 79 29
-333.219576 256.658554 1764.867973 83 79 29
-356.147027 152.000868 1816.040802 33 32 21
-422.358513 -348.896599 2121.453857 114 97 32
-408.140659 -334.277582 2126.869965 26 22 18
-337.035561 202.134609 1799.284172 144 133 78
-328.294873 166.079605 1838.834763 11 9 9
56.300581 348.366261 2210.385895 82 109 114
-383.028531 -23.399073 1913.961601 32 32 31
-347.452998 317.874026 1689.522362 46 48 51
-390.398049 -82.997602 1946.390343 26 21 14
-350.147247 339.722061 1667.748260 92 104 97
-350.147247 339.722061 1667.748260 92 104 97
-415.599203 -352.834249 2123.166847 52 48 29
-315.844631 272.530890 1765.989304 80 71 28
-315.844631 272.530890 1765.989304 80 71 28
-354.340506 65.082979 1875.032997 15 12 11
-320.702124 257.915545 1768.376923 170 155 91
-350.339890 143.625426 1817.288017 173 160 104
-321.123004 251.225471 1771.403122 179 163 94
-345.839167 315.431499 1685.121727 49 53 54
-390.263987 -331.294394 2126.187325 83 77 46
-306.480312 258.000946 1777.672958 145 129 73
-335.863948 150.035417 1818.520927 179 164 102
-380.509210 375.876927 1583.686066 104 119 95
-312.501287 181.691742 1823.230171 8 8 7
-311.923051 202.888155 1806.538200 166 148 94
-267.651534 271.016693 1805.233192 17 16 15
-363.706422 356.181335 1613.054276 139 167 163
-297.209311 195.578492 1823.900604 13 13 11
-292.955232 188.019598 1832.867432 131 130 76
-376.657963 -328.192997 2113.212585 248 233 229
-398.336864 -252.735519 2026.565552 40 37 17
-301.066494 162.063646 1832.296944 60 58 28
-249.710441 256.023908 1824.063301 52 40 27
-469.991875 -103.799403 1811.048889 92 84 34
-281.200695 180.477357 1838.940048 43 41 24
-327.674675 453.402376 1561.965370 172 169 95
-421.913242 -412.919521 2093.498993 137 124 74
-275.773168 174.031913 1837.293434 44 51 32
-275.773168 174.031913 1837.293434 44 51 32
-371.806002 -350.246477 2107.088852 250 236 231
-412.137938 -404.908466 2092.753220 51 46 34
-369.506454 375.600386 1559.696388 84 120 123
-422.696877 -427.562237 2094.362831 172 153 100
-369.166565 -37.385124 1868.979073 132 122 81
-373.206854 -358.615041 2101.993561 57 49 27
-394.017339 -258.630776 1998.952293 210 210 145
-372.871161 -344.022870 2089.720345 58 47 29
-359.932017 -18.167873 1861.583328 109 108 68
-473.247671 -86.365986 1764.308929 114 110 53
-385.211134 -266.466331 2009.446716 189 189 116
-385.211134 -266.466331 2009.446716 189 189 116
-467.268991 -113.075495 1790.568924 172 170 105
-374.343252 360.912943 1554.532719 105 109 89
-469.938231 -85.131800 1759.912682 162 160 95
-255.259061 243.155384 1782.141876 241 227 221
-261.160350 213.770366 1791.077614 62 55 34
-326.297522 442.587805 1537.535095 163 165 87
-341.899443 332.076454 1593.639660 44 76 92
-334.295702 421.514702 1537.178802 133 135 66
-327.962613 28.555068 1831.888962 15 12 11
-251.063466 229.082680 1778.120422 84 74 42
-378.363252 -259.688544 1974.912643 188 180 110
-418.706226 -172.868776 1859.559441 169 159 87
-346.565819 -37.377530 1848.503494 12 10 10
-362.729907 -425.722885 2110.048866 248 241 230
-345.800614 403.800154 1526.907063 146 148 106
-340.853500 326.258969 1589.315605 81 123 149
-246.879292 244.709587 1762.726593 57 58 35
-246.879292 244.709587 1762.726593 57 58 35
-321.215129 438.234234 1524.614239 118 122 56
-370.049047 -421.014547 2084.783173 33 28 14
-374.285269 -273.674703 1972.283363 14 13 7
-339.405322 -392.167807 2098.120880 160 139 79
-382.119131 -465.135050 2093.634605 78 68 27
-382.119131 -465.135050 2093.634605 78 68 27
-364.811087 -421.856308 2074.708939 160 144 99
-296.118999 323.605776 1624.315453 21 41 51
-333.101797 412.175846 1515.216255 136 134 61
-333.101797 412.175846 1515.216255 136 134 61
-375.386453 -471.345043 2092.519569 250 238 232
-371.350121 -465.133619 2091.921425 98 86 27
-360.740852 -266.978669 1963.067436 179 165 96
-360.740852 -266.978669 1963.067436 179 165 96
-357.654786 -283.760047 1977.352333 219 209 170
-308.756948 36.566934 1808.205414 151 141 103
-248.309326 222.937083 1748.229027 178 159 96
-330.934882 -163.965321 1920.718384 141 128 81
-330.934882 -163.965321 1920.718384 141 128 81
-353.746390 -254.001737 1955.046082 212 206 118
-333.276963 307.657075 1579.132080 136 151 116
-349.498582 -269.988275 1968.655205 197 189 127
-275.843740 100.076771 1794.571877 59 56 55
-328.041720 -153.142715 1911.016083 52 51 23
-342.831278 -54.866427 1823.010063 186 182 100
