ply
            format ascii 1.0
            element vertex 1767
            property float x
            property float y
            property float z
            property uchar blue
            property uchar green
            property uchar red
            end_header
31.785941 -195.234597 1257.948589 9 9 11
-600.156450 554.195547 2399.030876 70 76 83
38.459566 -256.447768 1342.892265 15 17 18
79.617673 -248.937678 1307.906723 15 17 18
200.924873 -229.291439 1203.960800 15 17 18
117.043102 -100.513422 1382.224178 29 31 32
221.641207 399.804997 1513.844299 26 28 28
-8.583393 -304.793406 1453.038311 8 7 11
509.897089 -125.873375 932.023811 47 47 49
406.088209 -24.776971 1124.134159 47 48 50
281.282187 302.466822 1571.575260 7 9 11
312.101746 431.810713 1655.296898 21 23 23
314.510536 426.182270 1661.235046 66 69 67
-293.889642 -672.239685 2035.815811 83 87 89
287.344813 402.560616 1753.103828 96 109 93
-171.307278 -616.424179 1892.690086 83 87 89
762.376547 -42.469922 749.313688 95 96 94
271.593094 359.100437 1847.647667 93 103 90
286.905766 356.333399 1861.264038 76 86 73
368.588114 419.607353 1767.567444 51 63 51
389.122462 408.710575 1806.116676 80 89 79
395.701480 413.436460 1803.269196 40 44 39
-5.256989 -253.914046 2358.481979 86 103 116
-5.256989 -253.914046 2358.481979 86 103 116
5.032152 -144.029868 2487.232780 64 71 80
9.950704 -266.954088 2370.415115 116 137 152
16.376157 -64.492238 2562.489128 63 87 103
86.635494 -406.713581 2368.861580 119 139 156
89.679086 -405.951357 2362.500381 119 139 156
465.786648 305.863762 2094.858932 88 101 92
524.735498 365.036178 2016.511917 35 42 35
-82.080168 689.688730 963.590336 134 141 150
-82.080168 689.688730 963.590336 134 141 150
-248.667860 595.096207 1181.589890 34 42 41
-26.187474 477.869034 1111.639786 34 42 41
-63.943207 543.087244 1350.698280 38 50 44
-24.951845 193.926549 1202.753448 203 208 211
-303.099561 -249.771786 1400.725746 74 80 87
-303.099561 -249.771786 1400.725746 74 80 87
-16.603619 -295.222569 1204.041386 8 10 11
14.769293 525.789022 1666.885567 143 147 152
14.769293 525.789022 1666.885567 143 147 152
179.809892 421.318913 1493.174553 135 140 143
179.809892 421.318913 1493.174553 135 140 143
189.125896 415.054655 1499.542809 115 118 124
252.276635 377.928042 1451.631165 115 118 124
204.834151 413.385201 1517.466736 143 147 152
204.834151 413.385201 1517.466736 143 147 152
113.185120 -81.472176 1397.331142 22 26 27
304.724312 434.448576 1696.375847 32 36 23
275.804496 -267.987490 1347.543716 15 11 10
324.961877 431.179142 1708.600998 51 57 40
317.058277 431.356859 1723.419380 111 125 112
441.778517 -200.128722 1242.779446 58 60 60
312.037873 391.095400 1803.903580 83 94 78
242.471743 -255.829191 1536.033916 157 181 199
734.364891 -154.575706 896.255207 26 29 26
-171.493626 11.459786 2393.272781 164 174 184
-166.444671 -3.223738 2409.334183 75 100 115
-165.421093 -2.956426 2408.369827 75 100 115
396.858978 406.118011 1813.154221 38 44 39
356.275344 367.388248 1875.253296 29 35 30
356.844640 367.089510 1874.524879 29 35 30
339.541054 336.474228 1927.920723 188 200 206
-92.858952 -356.584454 2200.323296 175 189 199
-86.093014 -372.696161 2231.952477 161 178 193
-31.094199 -331.995702 2257.817078 89 105 117
-40.518263 -383.077955 2267.474365 155 174 188
-9.309005 -255.021286 2366.248131 80 99 112
-14.563808 -391.643572 2289.750481 168 184 196
439.273643 318.995285 2006.519890 48 58 46
42.090091 -262.662315 2413.892937 67 72 81
40.046564 -314.879608 2378.586197 107 119 131
44.689128 -355.811048 2342.314529 88 103 115
140.629959 -462.640333 2417.059898 108 141 167
558.717537 279.481769 2132.004738 46 56 44
681.577158 335.273504 2094.877815 44 57 48
718.690443 325.836229 2136.543655 48 64 55
-367.676973 765.541887 817.604065 45 55 48
-409.686327 740.757227 856.793308 54 72 61
-707.697678 673.729706 912.798882 177 183 189
-436.403227 650.746965 924.598217 55 69 63
-718.912888 663.419437 934.222221 181 192 200
-568.965769 667.416525 936.590481 39 49 43
-692.237043 660.700035 952.202034 200 212 221
-587.997198 676.183271 956.907177 50 62 52
-700.417805 653.669834 959.720135 125 135 132
-636.863232 657.797146 961.768246 56 67 57
-700.253868 656.158590 965.878582 115 123 113
-534.120131 598.593187 1122.836971 163 180 187
-554.612446 533.550501 1245.670891 125 148 164
-16.207282 531.785536 1394.548321 41 54 52
-15.967165 -170.063376 1149.743271 138 168 185
136.934459 537.678051 1461.376286 195 199 200
42.139423 -303.449631 1174.797249 11 12 16
-322.809482 736.836481 1840.286827 88 93 94
175.669050 421.415520 1495.563793 134 139 142
66.996413 493.854284 1588.807964 35 38 36
207.947063 416.869688 1512.224293 35 38 36
201.411819 415.977335 1532.691956 88 93 94
-41.219422 -293.121099 1367.540359 23 23 23
45.606837 -71.940053 1441.759014 13 15 16
426.443338 214.923167 1431.716537 56 58 59
426.443338 214.923167 1431.716537 56 58 59
223.038268 -364.601827 1350.230217 114 109 114
306.233096 -275.016904 1322.110176 26 20 15
214.721751 -367.225504 1389.851379 15 15 15
241.987681 383.601499 1792.770958 84 94 71
241.859961 376.105785 1806.823730 22 23 15
238.159299 370.678544 1818.076134 79 92 67
187.987232 343.430400 1854.080200 184 197 200
246.922350 367.594719 1823.465538 85 95 78
262.693858 361.458921 1827.856636 89 101 79
310.793662 392.300653 1805.726433 86 100 77
294.587350 273.938036 1756.349373 184 197 200
293.160129 353.523469 1863.153648 75 86 67
414.714241 404.501867 1799.927139 40 49 39
395.816374 376.715159 1848.324013 18 29 21
248.954415 134.647024 1880.487442 212 221 224
-0.644680 -59.283423 2033.779907 97 113 125
-151.207852 -347.098327 2143.128777 176 199 215
464.931059 302.205062 2024.676704 51 64 49
-49.399102 -303.339553 2278.501320 91 102 110
-47.143963 -22.610486 2487.466431 150 167 176
-7.187086 -254.326773 2363.915253 85 101 113
1.449270 -385.955811 2268.907738 188 201 209
-12.255020 -167.633140 2505.100441 78 88 98
40.825579 -399.006701 2292.219734 137 151 161
72.035730 -295.022702 2415.435791 66 75 82
110.365188 -119.719350 2558.331490 71 87 99
113.987982 -157.709157 2567.466736 108 132 144
531.763792 214.012027 813.658428 41 49 33
-445.264244 826.073837 742.127371 27 31 20
-359.949660 806.221485 785.040092 51 62 51
-90.047330 536.925554 877.886677 61 75 61
-698.456621 729.257059 871.711445 183 191 198
-150.401175 736.262846 974.386883 134 138 143
-728.900719 682.858515 938.674545 76 80 72
-693.687868 664.050388 939.116192 76 80 72
-773.477364 681.317329 957.209110 193 206 213
-728.694582 686.420822 993.073082 117 129 117
-682.093334 673.905182 1035.877609 25 32 35
-454.342651 675.496340 1082.990265 37 51 47
-682.895565 589.048290 1076.247978 204 211 214
-323.965073 637.742805 1197.911453 33 44 42
-223.013783 613.462305 1251.892185 137 161 177
-274.098063 575.502920 1288.935471 75 94 91
-338.913560 110.475504 1212.254524 101 118 127
-94.260377 566.738653 1340.919399 134 155 168
-100.794148 565.969753 1348.006058 49 63 59
78.232253 2.399801 1159.343815 101 118 127
-49.472249 548.220062 1392.938137 47 61 55
63.127118 364.851260 1331.375504 35 46 44
-39.419690 -184.789431 1190.434551 5 6 10
121.738458 -193.242741 1154.219151 45 46 50
36.847985 73.572767 1278.962421 64 66 67
112.483084 223.361969 1323.980522 19 17 16
64.727801 228.741479 1343.816280 77 79 79
85.292107 -217.372060 1174.729824 80 81 85
85.292107 -217.372060 1174.729824 80 81 85
94.076496 238.544631 1344.128609 38 31 26
23.247524 -217.071128 1192.745972 22 24 25
144.682848 -226.029277 1165.564060 80 81 85
125.346315 534.235382 1464.030838 195 200 199
67.513597 -236.529469 1200.583363 60 62 63
117.688155 245.119381 1377.411842 64 65 63
167.826140 -244.379044 1179.183578 10 12 13
171.170878 -252.771378 1183.076954 69 72 76
180.717182 -247.128701 1185.024834 7 9 10
-12.495618 -242.241073 1239.862823 70 72 72
179.181635 -252.884483 1187.016773 9 12 13
-10.462891 -240.003943 1243.742371 12 14 14
184.780395 -254.459906 1189.973068 11 15 16
177.733541 -262.774587 1192.965317 5 8 12
184.308076 -258.953953 1193.140697 28 31 32
157.642519 426.873159 1474.232101 43 46 44
158.049667 423.504019 1477.765465 133 139 138
158.049667 423.504019 1477.765465 133 139 138
-578.553343 891.973686 1874.522781 29 32 30
-385.761642 781.547499 1780.539513 32 35 33
200.670695 -250.627828 1205.255890 48 47 49
197.893023 -261.539698 1202.346134 70 72 72
167.550004 419.920063 1484.341240 135 141 141
170.015168 425.487232 1488.671970 133 138 139
174.808788 416.922188 1490.084457 139 144 144
204.982495 187.028193 1393.840790 50 50 50
117.084086 469.631052 1539.439297 44 47 45
185.650289 417.135191 1498.704910 74 78 79
212.235689 -268.686223 1214.795208 15 17 18
215.164995 -272.810388 1216.044235 73 75 76
193.980861 411.998701 1503.620148 71 76 76
47.185251 -266.287017 1275.692654 63 65 66
195.283496 409.748268 1505.443382 127 132 131
195.283496 409.748268 1505.443382 127 132 131
220.773816 -271.029949 1223.096848 13 13 14
226.845932 -261.910248 1228.997135 6 5 7
201.467323 401.760864 1510.603237 31 34 32
228.143263 -264.495063 1229.599380 85 86 88
228.143263 -264.495063 1229.599380 85 86 88
232.035041 -262.311172 1232.005596 112 114 115
232.035041 -262.311172 1232.005596 112 114 115
208.733201 405.031395 1517.278862 122 127 126
300.143337 228.621531 1420.331097 81 92 100
525.473261 -112.383902 1220.163250 10 10 11
46.867800 -269.499922 1301.185608 6 7 11
217.355967 401.552010 1523.649693 122 127 126
109.963465 -263.070536 1299.486542 9 9 9
245.062995 -274.096894 1253.240395 25 27 27
249.971485 -271.199632 1255.203533 7 7 7
246.811509 -274.926209 1255.519104 73 75 76
255.661893 -267.086554 1256.817245 9 11 11
258.141994 -265.593624 1260.499859 49 50 50
252.878690 -271.763539 1259.867668 14 15 15
221.659207 -259.908891 1292.136574 101 101 101
262.084794 -269.417596 1273.075485 32 32 32
11.983988 -70.237035 1456.906605 19 21 21
129.388905 -252.081919 1342.808151 8 8 8
273.891807 -261.658549 1280.411243 101 101 101
270.276546 -266.946983 1280.025768 18 18 18
270.443082 -264.612913 1281.145763 108 109 107
261.288881 306.307673 1537.415600 6 8 8
271.107697 -266.075134 1283.125210 97 98 96
225.071096 -252.439737 1316.735744 10 8 7
263.727069 294.628525 1544.857121 17 19 20
229.186463 -248.481727 1319.780827 8 6 5
276.133204 -258.889818 1295.628262 108 106 105
283.933282 -255.393457 1297.769737 136 134 133
289.582133 -248.489690 1300.067711 12 11 11
286.963367 -251.391864 1300.923920 139 138 135
263.627434 301.759791 1558.073044 5 9 12
293.570304 -244.102716 1303.090954 8 8 8
286.356759 -253.042436 1302.812958 10 8 7
309.171820 -243.131042 1299.836731 8 8 8
279.959202 200.653505 1512.866211 55 60 58
276.942921 156.218374 1494.558811 53 50 43
276.942921 156.218374 1494.558811 53 50 43
277.567911 300.052166 1565.456676 3 6 7
291.745687 -230.184388 1331.578159 8 5 5
306.099057 -229.398012 1328.460312 8 5 5
321.537781 -228.777575 1324.800301 8 5 5
276.373649 -283.568454 1345.554543 61 62 60
281.876969 -266.068959 1383.919144 66 66 65
299.545336 -252.338696 1399.149036 52 53 51
299.545336 -252.338696 1399.149036 52 53 51
356.276894 415.629148 1708.858109 78 84 60
94.863892 -456.982231 1428.565407 95 97 103
302.511978 392.872214 1743.149948 87 98 72
370.531130 411.199760 1721.570206 85 103 81
272.115612 381.776571 1764.425278 64 76 50
379.576588 411.914921 1722.815514 177 192 200
373.944211 412.720919 1730.073738 86 100 76
269.761300 375.088120 1771.244049 31 40 19
382.258773 407.557964 1732.672501 73 85 65
287.021351 368.929935 1771.394157 30 38 15
291.160345 371.531653 1779.925919 83 96 70
291.160345 371.531653 1779.925919 83 96 70
317.658639 371.097660 1779.066658 42 45 23
310.076308 372.384143 1787.484169 78 85 66
323.465061 372.579122 1783.784103 45 51 29
337.983871 373.809743 1780.424309 85 95 72
408.520842 399.464989 1758.061409 43 53 37
70.656449 -21.163176 1739.418983 40 47 50
361.355591 374.277234 1786.508942 19 23 11
282.627726 350.999498 1822.562981 72 83 57
428.077030 390.901256 1765.954590 32 35 20
396.647000 381.027246 1780.938339 74 83 63
419.801998 387.587643 1771.974754 74 80 61
419.801998 387.587643 1771.974754 74 80 61
404.371214 377.584052 1791.773415 17 22 12
404.371214 377.584052 1791.773415 17 22 12
5.085554 -283.621502 1694.005775 155 178 192
306.315517 346.116710 1844.342613 66 79 55
-2.431260 -155.261528 1784.457397 120 136 148
-69.546479 -287.202930 1775.838470 177 196 209
407.661009 361.950421 1822.269821 70 86 69
406.368256 354.472852 1840.203476 70 85 68
406.368256 354.472852 1840.203476 70 85 68
-35.654995 -335.174823 1757.554245 125 154 175
404.904795 346.270823 1849.184990 29 38 25
-347.754765 -278.400517 2018.512535 112 133 150
395.779777 340.617895 1865.402031 25 32 21
356.476808 321.920347 1887.657547 190 202 210
-356.097174 62.346637 2245.080948 62 84 96
452.696133 353.009629 1850.840569 32 40 29
367.023921 319.199824 1896.859741 189 202 208
496.451187 369.654679 1835.983276 74 88 77
442.181253 340.621495 1869.280052 35 46 36
487.204790 354.388499 1851.056862 83 95 85
490.163469 351.656008 1857.250023 28 38 26
-282.348180 -293.947482 2059.471130 103 118 127
503.167725 350.439119 1864.181519 78 91 78
408.225536 310.534525 1924.647331 55 68 52
504.839039 341.358423 1889.607811 20 28 20
514.303780 334.454751 1901.375198 19 25 20
-360.055590 -318.295979 2238.504601 99 111 121
533.711863 329.316759 1910.025024 79 96 82
-208.593249 -321.862078 2132.883453 99 111 121
522.639227 328.920650 1922.649002 28 41 27
-182.463300 19.008595 2377.730560 163 172 181
574.008608 327.539277 1922.723198 27 35 27
574.008608 327.539277 1922.723198 27 35 27
484.009981 292.089534 1980.587196 107 116 106
548.087025 316.320825 1940.867233 32 42 29
548.087025 316.320825 1940.867233 32 42 29
538.774204 311.599565 1949.334145 32 43 27
538.774204 311.599565 1949.334145 32 43 27
540.270996 308.326840 1953.319740 75 89 73
540.270996 308.326840 1953.319740 75 89 73
498.927546 290.240479 1986.987495 43 56 40
584.831047 319.707274 1939.647865 76 89 75
-138.239300 -354.874039 2192.457008 141 150 156
504.792023 283.138514 2009.715271 105 122 109
563.838816 302.287126 1974.500656 73 83 71
517.287016 272.690248 2009.269333 74 82 72
516.045523 276.387167 2014.923859 71 78 65
-85.677314 -31.343314 2420.494270 68 89 103
560.694981 284.827757 1999.550629 61 70 60
533.429480 273.078394 2032.826614 55 66 56
545.164156 265.741467 2036.333084 56 71 55
-86.412454 -380.179453 2257.704353 124 136 146
-31.956792 -391.549063 2290.326309 125 136 140
-15.530424 -254.102492 2373.395348 85 99 111
591.038847 255.142689 2074.473190 38 48 35
615.603733 264.700747 2069.868851 24 35 19
9.386709 -319.605374 2338.413429 88 107 115
9.070097 -238.601255 2399.741745 119 134 146
15.062642 -142.169166 2472.940636 64 68 73
15.062642 -142.169166 2472.940636 64 68 73
605.448675 245.873117 2083.453941 40 53 41
-2.006701 -402.074337 2323.037148 137 153 162
-2.006701 -402.074337 2323.037148 137 153 162
38.088882 -383.777785 2347.412109 88 100 109
93.271369 -65.087730 2577.703857 146 164 175
106.167662 -186.571038 2536.635017 55 55 60
106.167662 -186.571038 2536.635017 55 55 60
117.682135 -422.532463 2418.086052 104 114 123
35.873610 -35.129490 1166.854954 119 142 150
48.284173 504.166746 1397.142124 137 156 169
-49.780729 98.256850 1281.630611 18 18 18
-30.349758 210.307121 1324.168777 30 32 26
5.347889 238.766408 1357.361507 19 17 15
53.450698 499.645901 1452.388382 47 51 46
48.376080 498.438931 1455.754280 43 47 42
174.244606 437.262201 1526.614952 34 35 33
487.569809 220.216489 1390.426731 133 141 140
487.569809 220.216489 1390.426731 133 141 140
-184.496641 -38.892281 1519.582367 19 21 21
241.694117 200.461459 1519.450378 11 10 8
233.438230 -109.836578 1462.357426 60 65 63
233.438230 -109.836578 1462.357426 60 65 63
308.149981 395.746469 1803.402901 80 89 63
8.685903 15.371192 2261.597633 178 187 190
-3.115384 -357.026267 2391.104698 87 96 105
-402.685642 850.825214 750.185251 30 34 22
230.464196 189.550710 1268.870449 157 173 185
-17.146511 530.257702 1406.682014 42 55 56
170.082808 20.852740 1259.778023 18 19 15
120.837486 -324.413228 1166.151142 12 16 27
150.406742 430.973387 1486.126804 121 126 124
-329.349613 761.326933 1649.047470 116 121 120
131.956494 433.729649 1489.570808 48 52 47
190.351081 430.283070 1519.895935 48 52 47
273.781753 -312.830496 1237.100124 11 11 16
193.816686 418.707895 1528.839397 116 121 120
165.461707 536.842203 1981.729889 53 64 44
165.461707 536.842203 1981.729889 53 64 44
-163.930249 -58.320141 2158.630943 94 109 118
-153.358817 -60.328269 2153.169441 94 109 118
-161.730254 -350.456858 2150.592804 176 195 210
86.345315 -416.607237 2294.455338 193 209 222
104.147696 -381.270194 2355.453300 88 101 111
-127.708173 853.597355 579.581594 131 139 128
-115.281343 829.193497 630.209923 40 39 26
-186.923361 836.852551 613.295698 83 92 72
-111.372709 708.173847 983.442783 131 136 139
-586.108017 713.144779 864.672089 60 68 52
-651.655674 703.518820 878.321743 183 192 196
-477.008533 658.091450 971.895695 49 58 46
-897.004795 771.979237 917.958260 79 83 71
-535.095644 684.971428 988.664818 41 51 39
-418.503904 614.958000 1006.846428 41 51 39
-737.639475 660.241747 961.140347 194 206 209
-620.203638 642.014027 1036.803246 31 33 33
-678.035164 32.574126 925.404263 179 187 186
-200.901556 592.812252 1232.420731 144 164 177
-158.129394 238.945842 1176.892281 204 209 212
45.471936 90.775210 1239.906311 206 211 212
36.728418 255.078220 1323.085690 84 90 87
59.265858 85.666746 1282.608891 18 20 18
55.834359 230.174494 1339.425564 9 8 8
-38.864490 -300.921106 1163.117599 9 16 33
88.673025 484.945965 1445.722103 59 61 61
136.669910 -254.712009 1205.406570 11 14 18
139.540315 -265.452600 1218.264961 3 4 12
150.013685 -263.421583 1220.766449 64 67 71
166.924620 -257.495332 1227.947903 6 8 9
166.234374 -254.249787 1229.129982 76 78 79
168.207729 -252.242708 1231.453609 16 18 19
171.208978 -255.964613 1232.264233 69 71 72
173.570609 -248.646092 1235.461426 11 13 14
172.620881 -259.393239 1232.309914 7 8 12
71.313888 -241.094995 1241.572857 10 14 15
149.337041 428.628826 1481.871414 132 137 136
179.736745 -253.174663 1239.853573 49 51 52
714.566565 -243.931913 1306.587124 14 16 17
141.446447 179.614329 1402.581501 7 7 7
645.686436 -221.019220 1324.305820 8 10 10
211.783886 211.984515 1431.359005 9 7 6
192.070377 -266.901159 1259.222317 57 61 62
379.833746 278.859997 1479.268169 65 70 69
191.272998 422.691965 1530.017567 125 130 129
213.342714 -258.370948 1282.475853 83 85 85
185.489190 -235.763693 1294.435978 52 52 52
213.226104 -275.465798 1279.955006 10 13 18
224.943161 -255.317712 1293.571186 9 11 12
335.249972 -283.316660 1284.579754 9 9 11
242.111564 -195.947671 1317.447948 3 5 6
216.174722 197.422647 1466.431046 60 63 61
201.489592 -238.847423 1306.210041 118 118 118
234.796715 -232.637691 1309.067631 7 7 7
232.619190 -252.743435 1302.181053 8 9 11
194.355512 -299.858403 1289.391041 92 93 91
239.887285 -243.141365 1311.298275 118 118 118
242.905807 -245.625615 1313.833046 10 9 11
247.271681 -235.197091 1318.192005 111 111 111
251.413870 -227.364135 1321.878147 5 5 5
246.043444 -241.597915 1316.834927 10 9 10
263.393235 -227.975011 1323.317623 5 5 5
259.767628 -219.266772 1328.846550 4 6 6
253.870773 -228.658319 1327.448940 4 4 4
216.934443 -0.901449 1418.371868 50 52 52
258.856559 -219.966125 1335.037231 8 9 9
236.323094 307.877970 1536.418533 17 19 19
225.354981 176.181006 1487.077427 73 71 70
255.294752 -211.382389 1341.126347 5 4 6
265.954041 -223.144150 1335.744190 94 94 94
234.180760 307.011914 1539.214325 5 7 8
267.994046 -193.070042 1348.636532 49 51 51
270.788097 -188.942862 1352.652740 53 53 53
254.475355 302.840209 1541.321468 9 11 12
282.186365 -179.579306 1360.145760 58 59 59
273.588681 -178.421474 1365.921688 7 7 7
274.218345 -186.911702 1364.833450 62 63 63
282.759619 -163.317335 1375.026894 73 73 73
241.996050 221.606851 1526.202869 61 66 65
258.804727 200.522399 1529.213238 67 70 70
258.696508 311.476612 1574.226189 3 5 9
249.939466 -2.775421 1467.548752 82 83 81
235.879874 -2.815169 1475.660133 17 18 16
238.310671 -257.957578 1390.483952 61 60 56
303.997588 447.094727 1686.232376 162 173 173
222.911143 -448.117685 1376.177883 92 116 136
350.082827 427.728748 1735.070038 96 105 85
258.424711 410.271931 1750.270653 56 63 44
276.555729 411.893654 1758.299637 77 93 71
277.807999 407.237053 1760.205078 67 77 59
254.874539 394.298792 1774.889183 55 69 44
390.116191 421.323633 1789.312363 31 32 23
398.784161 415.711117 1787.279129 30 31 22
387.344599 415.097284 1795.028305 75 78 63
377.496433 411.388445 1796.683502 23 28 13
377.496433 411.388445 1796.683502 23 28 13
367.909861 404.860306 1801.555824 81 85 73
367.909861 404.860306 1801.555824 81 85 73
238.539386 374.964786 1822.197723 75 85 59
371.859193 403.455067 1813.826561 13 20 8
255.892754 367.072725 1828.883171 79 88 63
256.576443 369.174266 1838.410187 62 74 51
351.582074 376.403618 1853.293037 67 79 61
379.226851 376.706648 1861.655426 72 82 67
379.226851 376.706648 1861.655426 72 82 67
277.384281 465.351486 1924.865150 52 63 46
357.940960 369.362044 1864.726830 16 19 10
357.940960 369.362044 1864.726830 16 19 10
488.303947 389.984465 1864.319038 37 48 28
422.182178 379.544854 1875.549889 21 27 16
368.092871 362.634826 1886.351013 14 17 8
452.426195 385.018635 1879.855156 73 87 70
457.163525 381.158209 1885.380363 20 28 19
409.627008 367.953205 1895.894051 18 29 12
469.116592 381.234765 1893.148422 63 76 60
454.777145 366.909218 1919.188118 71 82 67
472.334623 370.826674 1917.418861 7 11 5
494.881773 364.617062 1945.457077 70 85 68
-373.288536 -265.791655 1890.131760 179 199 211
402.732897 329.097342 1977.518845 48 61 47
534.954739 365.293431 1960.900497 17 26 16
509.090900 352.186131 1978.029823 27 35 28
-323.265934 -288.961792 1956.166840 173 192 207
450.032949 317.377448 2027.508354 49 61 48
463.279867 317.305017 2024.293709 90 102 87
461.294937 312.817240 2033.390617 45 56 42
-283.122516 -286.084294 1983.324623 105 128 146
-245.831966 -298.582101 2037.080574 100 112 124
539.622593 293.547702 2117.363358 38 46 39
-154.509485 -327.792573 2097.318077 96 108 118
-140.745449 -333.170676 2114.375496 102 116 125
130.831432 117.074668 2264.393425 136 162 174
130.831432 117.074668 2264.393425 136 162 174
-108.479702 17.429742 2341.960526 173 183 190
-109.009230 -12.976991 2361.524200 66 85 98
-70.122403 -36.754107 2405.665207 63 82 97
-40.563148 -36.144185 2450.703812 49 74 89
-23.504879 -379.728508 2230.598640 176 187 195
3.741461 -52.690119 2457.830238 57 76 91
-12.883456 -226.827550 2362.828445 106 129 145
10.048086 -258.465123 2350.013733 83 98 114
10.048086 -258.465123 2350.013733 83 98 114
-4.752035 -394.630051 2281.834221 183 192 196
32.954997 -243.758011 2377.830887 114 128 141
5.648778 -403.214598 2292.568207 117 133 149
26.960400 -146.165812 2460.091400 61 66 71
43.911588 -316.933584 2350.715065 69 75 80
55.617034 -352.612424 2333.636284 67 69 75
68.341988 -387.662220 2320.999718 79 88 97
77.978128 -313.748884 2388.502693 112 128 140
78.988773 -298.555183 2408.476830 60 69 78
97.902453 -68.259484 2586.798096 150 160 169
103.047073 -174.264455 2529.473495 71 77 84
103.047073 -174.264455 2529.473495 71 77 84
142.903674 -55.533648 2586.764526 181 186 189
110.133100 -188.819611 2530.968285 41 46 47
123.769259 -418.121243 2365.454865 114 130 143
121.334076 -157.955146 2557.548904 105 123 134
143.042898 -425.212431 2391.707230 99 112 120
24.742778 894.283104 566.834831 65 68 44
11.916778 890.878010 574.000311 53 57 32
-134.385085 889.194107 539.821291 96 101 87
-29.708257 866.193104 610.580683 63 66 45
-271.696162 852.564907 622.295189 86 95 82
-299.478698 815.782547 732.692719 40 45 24
-269.085097 799.432945 757.282829 39 45 29
-72.168827 743.898344 955.198860 166 171 170
-526.030016 692.528963 953.035736 195 207 207
-521.868324 700.120211 968.606758 184 193 195
-614.682007 689.930105 941.562939 62 70 53
-672.194624 676.678991 963.070393 77 84 63
-703.949881 678.732347 960.366631 108 110 89
-717.111397 671.386623 956.563568 202 209 214
-717.111397 671.386623 956.563568 202 209 214
-774.327564 694.439173 958.507729 131 136 116
-736.732054 674.615192 967.074680 131 136 116
-498.017168 635.130596 1060.093212 67 77 64
-594.611359 631.163979 1125.459862 167 180 182
-530.587482 613.347578 1157.312584 45 56 52
-215.713429 609.963942 1247.392464 144 168 178
-287.110186 583.825302 1286.465263 80 102 100
-114.187932 576.355982 1329.888725 148 169 180
-99.486911 570.008135 1341.336346 138 160 171
32.247221 -245.982003 1149.288559 24 28 32
53.412110 -253.468180 1152.934551 24 28 32
35.963219 130.010343 1287.098503 85 88 86
25.616148 412.056828 1382.533169 100 107 104
60.176629 -223.025823 1170.207882 66 71 78
97.340244 236.309099 1337.939644 74 68 56
33.418989 248.323035 1331.571293 28 31 29
26.009518 110.711610 1296.245289 36 39 37
51.834726 232.357168 1343.539047 80 82 82
126.356721 -246.649623 1189.323521 30 36 41
129.975379 -251.923275 1190.728188 83 88 95
74.024475 207.663655 1349.448013 94 97 95
130.004346 -253.384995 1196.991539 37 42 49
92.752957 364.873004 1414.375782 40 45 44
131.051695 441.952467 1483.933258 136 141 139
128.779066 449.632883 1489.266396 120 125 123
137.172902 440.639496 1491.251850 141 146 144
42.153519 201.252794 1395.104027 70 73 71
225.667906 378.189659 1491.779900 141 146 144
213.848686 -275.639534 1254.557133 64 67 71
159.208322 425.224257 1505.699444 56 61 59
189.438331 -298.791957 1247.325897 11 14 18
226.364136 -267.379212 1265.702438 8 12 13
170.375133 436.022854 1518.452072 131 136 134
189.880753 33.496776 1379.126072 53 56 54
182.586777 430.854511 1527.008629 131 136 134
195.869589 -234.732175 1288.561344 42 44 45
197.427011 418.406773 1529.210758 109 114 112
188.974094 428.907347 1534.228706 129 134 132
236.442232 -260.677099 1286.660576 20 21 23
213.854694 -232.208180 1297.310448 42 44 45
236.280584 -262.002349 1289.496326 62 64 65
256.633472 -243.022990 1304.303551 42 44 45
206.871605 338.132620 1518.571949 8 7 7
237.575269 -251.276040 1301.284122 109 111 111
250.189710 -244.616246 1310.121250 17 19 20
252.233934 -242.078733 1316.116905 103 106 105
636.205626 -30.657253 1443.278885 7 8 6
260.234594 -237.513804 1322.724152 11 12 12
270.080471 -203.333640 1340.879345 42 44 44
265.075517 -233.960390 1332.344055 13 15 16
266.816378 -211.482692 1342.949581 11 11 11
364.023018 -220.798993 1353.791904 42 44 44
482.301283 -285.322404 1346.426678 8 10 10
227.317953 327.254748 1549.633408 4 7 7
227.317953 327.254748 1549.633408 4 7 7
252.976179 200.475049 1507.854271 12 10 9
343.410778 -201.572561 1363.350391 39 41 41
255.632162 -238.036680 1346.760559 68 64 62
271.097803 232.456326 1535.506535 68 75 72
273.314571 293.968034 1567.434216 17 26 30
109.317470 53.078109 1474.371624 76 78 72
557.408714 489.212036 1691.785240 137 147 154
204.393172 -1.728951 1473.472118 76 78 72
290.937448 453.318405 1699.187469 29 34 20
314.479780 448.554277 1720.511246 99 110 93
326.185274 441.992998 1727.098083 65 77 55
346.693611 440.857029 1741.971588 183 199 202
350.963569 433.752775 1744.557762 83 98 78
338.433743 434.013796 1746.353340 115 129 106
353.346014 433.404779 1750.367928 82 98 74
367.118788 426.543808 1760.612869 51 61 44
369.390821 424.044752 1759.984589 51 61 44
-152.149224 -443.069839 1394.128799 127 158 179
230.334544 392.884159 1791.524696 69 81 52
247.133589 397.857141 1793.877029 24 35 8
414.672279 414.109278 1800.439644 36 43 27
388.574386 411.044741 1799.884605 22 26 14
279.829788 398.913789 1796.652222 73 86 60
199.487925 391.825891 1797.498703 44 52 31
361.421633 410.843277 1804.307175 64 78 54
292.306089 396.168351 1802.680206 36 45 25
227.756906 385.741830 1806.462479 12 16 6
373.813415 402.836704 1813.448906 21 24 13
437.029076 406.309700 1819.762421 51 61 42
411.861086 403.570175 1828.351021 58 68 49
298.685741 379.153442 1837.467766 12 15 6
269.848347 375.519562 1840.580940 19 30 11
394.743681 389.594150 1841.155243 64 78 60
379.836726 385.929561 1849.990273 20 24 11
379.581833 379.993272 1859.249496 83 97 79
403.518724 383.355975 1860.459328 13 18 10
374.781704 381.397700 1864.041710 67 81 62
327.611685 370.258641 1862.606239 56 71 50
352.662325 374.358582 1867.357445 19 20 11
278.867126 358.924365 1869.399261 185 197 199
372.518754 372.548747 1873.861694 17 25 13
288.894725 354.810047 1876.806068 185 194 196
71.029335 -491.838026 1503.666019 95 116 132
499.482441 387.148619 1881.054306 72 83 67
365.241909 363.545418 1881.105614 66 77 57
365.241909 363.545418 1881.105614 66 77 57
430.909824 373.428726 1884.551239 66 76 59
433.757782 370.381713 1886.967087 26 33 17
403.614283 366.156149 1897.766685 69 83 66
319.208932 346.170020 1902.077866 183 194 199
-49.181199 260.347629 1896.122932 56 61 59
326.130986 349.089622 1903.572655 70 80 58
362.021303 354.360843 1904.546738 72 85 66
326.466131 344.858861 1909.168434 185 199 201
466.465950 365.276647 1909.116745 16 22 9
336.248755 342.600942 1919.219208 184 199 200
462.329769 361.483741 1915.768051 67 81 69
450.484037 360.521412 1921.230698 22 29 16
-50.695181 265.069008 1941.713142 180 188 189
464.811182 359.781408 1928.640366 74 90 72
543.584538 374.987745 1931.258392 22 30 17
509.143448 353.572917 1938.247299 65 84 63
641.113997 291.634011 1895.307732 22 30 17
-154.978466 -305.404925 1705.213928 171 190 202
503.254509 349.203348 1945.188522 16 25 12
561.457634 352.169132 1952.081299 29 40 23
561.457634 352.169132 1952.081299 29 40 23
564.998865 342.530012 1968.857765 69 83 71
520.580530 337.436748 1974.847984 60 74 52
519.283819 339.748621 1977.539825 68 82 58
499.439621 332.082009 1977.295113 68 82 60
515.556145 334.585261 1977.379227 16 27 13
518.573141 330.227661 1986.222649 18 30 13
484.015131 319.205499 1995.842743 12 14 5
528.213120 324.561167 1996.373367 87 100 84
528.213120 324.561167 1996.373367 87 100 84
544.027853 322.987485 2002.128792 66 80 65
-479.533911 -250.750399 1899.299240 162 186 200
477.796650 309.279919 2011.915588 32 41 24
570.912886 324.028158 2007.032967 12 19 11
-534.988451 125.793064 2114.640045 67 89 104
497.235632 306.646252 2022.966194 80 93 77
-439.025402 -250.283551 1919.692421 108 124 137
-443.178272 -248.693824 1921.696663 107 123 138
-483.510447 115.502059 2120.732498 137 153 164
-445.363569 -253.037786 1925.917625 176 194 207
-441.751337 -253.833771 1925.166512 176 194 207
-475.740385 104.328477 2122.886276 59 81 93
485.956287 301.184797 2032.442284 106 121 107
521.014023 304.534483 2035.232162 61 75 63
487.131357 297.615242 2040.211105 51 61 47
-435.753632 100.260007 2153.783035 136 152 164
-371.938515 -254.763222 1985.858536 112 128 140
-376.683259 81.818527 2195.762825 142 154 168
-346.894455 71.841443 2216.598892 141 158 171
-346.894455 71.841443 2216.598892 141 158 171
548.140955 251.948929 2087.687111 168 178 181
-345.079374 72.833514 2227.650261 138 155 164
579.163647 276.713634 2099.792862 14 22 15
781.201458 73.803443 1968.454933 168 178 181
-92.326498 76.059973 2273.062325 118 154 170
-234.975839 34.827864 2299.507523 131 145 156
-240.397072 30.013171 2299.929047 58 74 86
-166.325903 14.819320 2359.198380 182 187 192
-150.487185 10.575225 2369.154549 196 205 209
-134.533691 -348.541832 2157.651329 119 127 134
-104.365396 -4.213797 2420.557022 154 168 174
350.240993 111.488187 2326.800537 162 179 187
-63.371879 -375.851512 2224.683762 197 210 212
33.794329 2.894515 2431.081009 136 150 153
-40.764910 -29.017404 2455.401611 71 94 108
-17.012811 -385.412216 2256.652641 193 201 206
9.232831 -258.612847 2350.276947 90 102 112
14.862768 -247.728467 2365.225601 75 93 110
14.148736 -46.627611 2507.128716 63 90 104
26.811510 -324.070907 2323.477745 89 106 115
9.099565 -402.142477 2282.346916 131 143 154
26.741484 -275.555778 2357.445526 122 138 150
3.082392 -408.789444 2283.046150 164 186 201
80.877602 -29.217133 2492.812729 142 153 157
0.590166 -416.298485 2284.156799 90 123 142
1.086799 -416.012716 2287.026787 110 141 160
6.377677 -414.205456 2287.795067 105 133 152
28.552103 -147.559607 2458.335304 70 75 80
35.871220 -405.624580 2300.460815 119 129 136
58.710957 -361.450577 2332.747650 102 111 118
59.801400 -320.468569 2359.860039 121 128 137
407.546473 -192.089796 2284.952354 145 158 163
89.180380 -288.741040 2405.460358 118 129 137
94.719476 -67.941362 2564.064789 140 153 157
107.395089 -72.665966 2567.181206 163 174 181
110.033202 -73.292381 2576.198196 160 170 177
119.803452 -81.592381 2574.985123 49 77 91
122.667003 -77.049011 2579.380226 137 154 160
-553.228426 915.972424 748.402929 64 75 49
-92.085034 73.327214 972.736359 178 186 176
-834.212208 858.063698 896.992207 59 67 46
-405.208635 681.590414 1145.848179 33 44 41
691.628313 -69.527680 1391.972256 33 44 41
529.413033 -420.844555 1234.352875 175 185 179
132.357240 -151.055670 1232.889843 30 35 34
25.354064 435.707951 1399.505329 118 124 123
204.516530 -279.701018 1217.560387 87 97 99
66.803336 576.970959 1466.770935 194 199 198
82.428521 368.469453 1417.378521 62 67 68
84.588760 368.226480 1423.371887 49 54 55
93.089330 369.394755 1426.362801 85 90 91
4.441193 452.956772 1462.298965 38 43 42
195.097375 187.519348 1421.026421 109 84 58
16.906776 475.053167 1492.059040 6 10 10
8.447529 466.251421 1492.364120 95 101 100
163.520145 349.247742 1484.378624 103 109 106
177.218890 334.012341 1491.354942 38 43 42
179.541457 332.363272 1491.663265 38 43 42
183.345616 156.026804 1433.962536 17 15 15
175.054204 436.145163 1530.245495 135 140 138
304.574323 -254.378557 1326.337433 68 68 67
214.352298 199.014318 1469.248199 93 92 88
206.996012 339.302969 1519.291210 6 10 10
206.839848 325.188351 1519.774532 95 101 100
209.171438 323.430514 1520.001411 95 101 100
221.060920 330.487800 1529.780579 93 98 97
239.371371 231.818914 1503.077221 85 91 90
228.996325 335.496402 1543.373013 26 31 33
240.351868 166.040993 1489.491940 61 58 54
285.986137 151.732671 1501.744366 111 91 71
275.548816 266.790605 1564.289379 85 91 90
287.420917 168.052185 1534.561539 82 85 84
285.371923 -63.357198 1475.275803 67 65 60
301.087523 451.035690 1712.868881 57 65 41
305.184460 444.110584 1722.275543 141 148 119
413.703680 416.095686 1789.163589 195 205 209
402.275181 421.200085 1795.138359 79 86 74
250.574160 388.343787 1793.187904 71 84 52
290.559793 391.596866 1798.521614 41 43 23
265.205312 390.581179 1796.674347 96 107 74
289.235783 388.766456 1802.906990 76 85 60
213.345814 376.905084 1793.601799 59 67 51
294.381809 387.088895 1809.917450 19 28 12
445.648813 402.256107 1835.932732 38 43 21
233.479667 373.461866 1814.789581 71 78 52
277.800918 374.377561 1829.965210 13 16 7
391.338801 382.852578 1847.332382 19 21 10
239.364100 369.840956 1831.228638 192 197 197
254.500771 361.756301 1835.795975 188 194 192
271.157026 362.357688 1845.861816 59 75 50
190.317965 345.176435 1842.385483 136 171 175
276.093864 355.741715 1854.111290 193 198 201
169.153261 377.244210 1858.905602 200 201 199
296.643567 350.106645 1855.587387 52 64 40
311.898351 345.514202 1889.556885 185 194 194
339.148259 353.091908 1900.996971 23 32 12
39.750060 209.655738 1854.859924 48 51 49
373.673987 330.041099 1930.535698 36 46 26
368.669295 324.228549 1930.519867 187 196 196
395.356059 319.086337 1942.620468 34 46 26
411.748981 309.964681 1965.388489 187 195 198
-14.366418 -105.377495 1810.483170 88 118 135
-77.725834 23.202720 1889.879799 173 189 196
66.956627 -9.406406 1908.123779 181 195 201
-490.397120 -247.441506 1848.080254 168 189 204
-450.747395 128.481197 2039.996719 171 184 192
-457.217741 -245.455122 1878.847694 179 197 210
-472.600985 -234.208417 1891.909027 105 125 142
-478.754902 100.603878 2064.039612 59 79 94
-445.128298 -248.956180 1894.043922 182 199 212
-427.775717 -236.824298 1922.442436 92 109 122
-386.899590 85.374218 2168.623924 133 152 165
-346.327782 -283.693624 1995.283890 178 199 211
-360.639048 67.192054 2179.559708 58 80 92
-328.859067 -296.257138 2029.286194 170 191 206
-156.879735 -110.445690 2150.732803 88 105 114
-175.731850 16.570574 2327.840424 143 155 161
-64.091289 28.892994 2323.185921 182 190 195
-155.245221 0.562862 2339.031410 65 82 95
-119.245982 -9.616341 2366.957664 65 84 95
-63.013721 -301.686192 2280.771637 89 97 104
-39.520806 -37.133154 2447.785187 60 83 96
-75.551903 -379.722595 2260.715866 122 141 157
-9.360836 -253.221226 2360.074997 89 100 106
23.720706 -146.582115 2460.733795 67 72 73
-390.901256 896.284103 720.013475 43 46 33
-480.004883 788.099813 851.988697 58 65 45
-536.695147 693.877268 969.666672 46 53 42
-680.460310 703.343439 909.560394 72 79 58
-620.637894 689.869356 950.861549 61 69 51
-405.920887 655.985117 1073.813534 184 190 188
-430.482149 665.427208 1064.344311 44 52 46
-403.321886 654.076862 1074.729443 184 190 188
-672.934294 672.703457 956.526661 91 97 80
-389.377809 653.814030 1102.870083 48 56 47
-502.333546 663.198519 1054.137707 23 25 20
-490.437889 656.068802 1068.535900 25 33 23
-484.403229 642.121363 1079.578304 33 42 26
-716.157103 647.117853 973.019695 193 202 199
-656.315041 646.091032 1004.579163 144 156 134
-645.437384 644.687223 1009.570312 73 85 62
-644.012833 632.273006 1021.071625 149 156 136
-467.193556 621.961021 1105.416965 29 36 32
-653.212929 630.008698 1020.235825 116 122 103
-671.908855 635.763407 1014.361954 190 196 192
-309.189844 612.904930 1187.496281 70 88 78
-647.816420 625.946665 1033.762264 190 197 192
-293.551922 607.817650 1200.843906 20 26 29
-435.773849 612.279177 1148.746395 15 26 22
-591.448450 611.651134 1084.341431 198 205 202
-532.196140 605.786180 1111.556911 33 40 33
64.569330 -8.262506 1180.388069 183 190 183
652.116251 -491.557932 1291.604137 18 43 86
111.658323 241.415763 1337.428761 12 12 10
43.246230 460.291147 1400.061226 35 50 53
212.784028 59.094620 1371.884060 52 60 60
147.983253 426.331520 1493.027782 92 97 98
125.178516 -333.941150 1191.248894 13 27 57
154.659271 339.905524 1468.699265 55 61 60
206.193876 335.132360 1507.726002 112 119 119
279.714632 209.097505 1497.339439 119 127 126
236.148930 320.663285 1546.139336 12 15 18
262.257791 64.848608 1456.656551 100 108 107
283.645821 305.446744 1577.115154 32 38 42
281.310225 175.105321 1535.243893 102 108 107
228.248048 -18.708897 1466.233921 68 67 64
321.182442 437.674713 1714.184761 58 64 54
247.591925 -243.655515 1410.531139 11 12 10
363.456392 427.285910 1761.743355 44 50 33
-1012.497425 -269.146037 1048.799801 130 159 180
259.155583 -442.446661 1382.581425 82 86 87
269.764566 412.138653 1754.041481 11 18 7
380.911493 408.500051 1796.215820 25 29 14
351.087022 406.958580 1791.370010 25 28 13
315.802979 403.451777 1787.436867 24 30 10
364.553475 396.159554 1803.093338 34 35 15
-41.560110 0.670625 1519.500351 19 20 18
333.949566 395.008874 1806.491852 21 19 9
333.949566 395.008874 1806.491852 21 19 9
321.881628 396.345472 1803.765869 85 91 68
321.881628 396.345472 1803.765869 85 91 68
274.585772 388.149166 1792.056084 33 39 14
249.389243 389.382005 1786.717987 19 23 7
206.899095 386.299610 1778.266716 8 6 5
478.319073 392.802072 1855.321503 41 51 38
271.013427 385.795259 1796.198082 85 94 60
204.532361 376.666808 1792.422867 165 172 162
204.532361 376.666808 1792.422867 165 172 162
383.821058 380.786419 1842.831993 74 86 61
234.846640 380.345392 1805.164719 14 14 7
226.253462 375.852180 1809.325027 73 78 60
353.620696 376.613379 1844.786453 29 36 17
353.620696 376.613379 1844.786453 29 36 17
228.842854 370.115161 1812.805557 184 191 186
229.084897 369.718385 1812.753105 184 191 186
267.977023 368.970585 1822.931099 28 32 12
384.539819 375.471306 1857.430458 84 97 72
353.751540 373.556519 1851.106453 80 87 64
330.627394 372.761559 1846.498680 18 25 4
236.768746 365.868115 1820.647621 181 187 182
414.451265 363.641286 1892.548943 18 31 8
296.523046 355.756140 1869.421005 38 47 25
288.013196 352.604651 1866.692734 189 195 192
186.166632 349.066591 1843.248367 137 160 163
329.195309 346.536899 1901.058197 52 60 37
412.212229 320.583081 1970.346260 39 46 25
425.116873 318.638897 1982.073021 39 45 26
32.594281 -155.760276 1755.444145 116 135 147
66.553819 -383.408237 1656.925201 132 154 167
-4.748347 -384.752083 1647.863197 164 184 197
-754.637337 195.624208 1853.908157 53 75 88
-713.720512 191.408670 1886.554909 142 156 165
-756.745577 201.273656 1897.416687 63 85 97
-599.145746 153.003645 1999.758720 121 145 157
-585.630560 139.781582 2003.372955 57 75 86
-506.703806 -234.315610 1856.728554 181 198 207
-470.161057 -134.954000 1952.428818 136 155 163
-438.254738 -253.192735 1921.164131 187 205 209
-422.735262 -265.759563 1949.168396 176 191 200
-338.545418 66.839361 2216.229630 72 82 90
-252.688837 -302.991652 2076.049232 86 99 107
-196.457899 -320.880008 2137.090111 91 103 109
-169.573629 23.438206 2359.656334 112 118 117
-69.566423 -25.042996 2438.282967 57 68 76
-69.967800 -299.179077 2283.520126 80 85 86
-191.919291 770.923567 969.250774 154 161 164
-777.185774 625.607061 873.907280 184 189 190
-713.008404 786.016417 977.173805 55 64 52
-684.131098 679.013205 977.719402 57 66 49
-684.131098 679.013205 977.719402 57 66 49
-702.654266 692.441845 1019.357300 33 34 30
85.694289 265.797448 1344.752693 14 12 11
135.658205 249.455333 1377.431965 36 38 38
36.086494 254.120803 1328.841496 108 120 120
137.069333 235.931301 1386.936665 15 13 13
32.031348 248.523831 1333.259773 44 49 50
123.044324 -237.627029 1193.048573 33 40 44
94.765157 -256.627798 1170.077419 170 184 183
132.161152 -246.542406 1199.836349 76 88 97
173.704958 239.223170 1425.292969 10 8 7
202.803135 40.058163 1380.430126 16 16 16
165.767157 341.073442 1483.285713 104 111 114
127.154517 -266.044950 1208.685589 66 85 94
254.917836 196.132791 1481.637859 91 80 66
259.470677 210.117555 1490.152359 13 12 11
147.548592 -281.354666 1223.966789 12 16 21
265.280533 226.247764 1504.449558 95 104 108
200.034571 337.853169 1514.177513 16 20 21
235.373926 321.776581 1531.804180 102 109 112
210.060358 55.644101 1416.263771 21 24 28
227.020669 27.927339 1413.924122 13 15 16
230.059052 3.453743 1415.269470 12 10 10
215.096092 330.329156 1548.790169 97 103 108
157.304418 208.695340 1482.959747 78 88 88
217.450905 55.499023 1452.920341 90 97 96
238.942051 208.241224 1528.985310 95 100 101
168.942392 -216.251326 1314.054298 166 136 106
333.310032 415.062857 1691.379356 159 165 170
737.543678 73.048401 1829.502869 36 42 25
205.030298 377.593422 1784.856987 12 11 8
271.587157 355.772662 1837.912178 59 65 46
424.037313 304.352140 1953.832436 33 40 23
-808.596325 210.812640 1867.041016 78 105 120
-561.402464 -227.607441 1847.936249 161 182 196
-407.800674 -237.388659 1986.328697 95 109 121
-433.013582 -260.593486 1978.510094 173 190 203
143.002212 108.053493 2258.210373 133 155 166
-313.461232 101.693690 2215.560532 171 180 183
-369.897389 77.075481 2227.028275 57 73 85
-314.637041 -279.170465 2053.855896 92 107 116
-15.103167 848.423386 1171.486950 206 212 217
-561.163902 804.756737 948.001862 207 212 215
-416.473007 671.764994 992.923832 207 212 215
-713.789940 703.771067 956.468773 62 71 55
89.983213 245.394230 1336.652184 94 92 88
74.940652 238.953400 1337.562466 24 26 28
201.496816 240.874505 1443.986607 107 118 122
90.236813 162.223744 1345.828915 122 131 135
47.684929 -232.482934 1154.862309 168 180 180
111.611414 199.992800 1405.699825 113 121 121
74.104071 -253.318453 1171.333885 46 52 55
-13.373324 -222.285199 1140.054035 45 50 51
82.822573 -253.191853 1180.495644 126 139 149
244.612861 187.524354 1495.582390 111 102 90
265.261388 -3.138599 1420.288563 17 20 21
101.109076 -268.836212 1202.638817 131 139 146
234.871316 223.992825 1518.409634 18 18 18
351.376033 469.556427 1703.912735 177 186 195
316.675735 499.272919 1705.224609 182 189 198
235.311532 210.334229 1529.641724 88 93 94
252.485943 -39.083293 1420.794964 19 16 12
270.795560 479.307365 1704.306602 27 34 21
375.029159 442.724991 1808.870506 35 36 27
882.699203 -99.759674 1816.774178 28 37 40
212.644458 414.909315 1793.839455 67 77 54
-41.923994 668.602610 1842.071724 42 52 27
283.003473 391.992450 1880.956268 44 52 35
472.120380 301.170301 2018.041801 41 49 40
476.108456 304.507303 2027.310753 41 48 35
-42.601162 -444.456005 1554.746914 15 17 18
-196.989632 -472.853851 1534.389400 132 159 179
-466.315603 129.322672 2037.990952 166 178 184
-441.298246 -253.683734 1905.363655 172 192 204
160.264301 92.252207 2251.539803 126 152 166
-293.782592 -283.064079 2012.841225 94 110 122
-283.825564 -287.608290 2010.352516 94 110 122
-151.064444 -326.102614 2126.586914 95 110 119
-21.791846 -74.963081 2384.387207 54 72 82
22.192939 -82.383186 2417.143631 44 65 78
37.570110 -375.075197 2236.636353 81 93 99
19.485892 -407.153273 2216.335869 171 181 188
80.808073 -300.162649 2317.980957 70 81 91
141.527331 -251.228428 2362.344551 65 73 82
39.156616 -419.011927 2229.681778 175 184 191
97.651523 -363.667536 2292.104721 74 89 98
62.852764 -429.879856 2242.622948 73 85 102
138.889170 -365.036297 2322.584534 100 112 120
251.446843 -134.436595 2511.771774 173 180 183
129.086578 -401.033878 2300.262451 83 90 99
205.617976 -146.845210 2521.464729 43 64 82
211.821961 -196.443760 2482.086945 54 67 74
158.984649 -361.284876 2347.286606 100 117 126
158.984649 -361.284876 2347.286606 100 117 126
169.608915 -348.578548 2359.895515 54 60 65
135.704470 -453.911924 2280.151176 182 198 214
216.317010 -246.163630 2457.031822 69 76 79
216.317010 -246.163630 2457.031822 69 76 79
216.317010 -246.163630 2457.031822 69 76 79
179.551625 -452.132702 2296.557617 107 126 141
179.718101 -431.088686 2334.962273 74 89 101
205.299449 -480.981779 2292.349243 176 193 206
244.943643 -460.641336 2344.613266 102 120 131
230.274153 -484.208727 2328.057289 179 196 209
279.786181 -494.374990 2348.151588 174 189 201
-367.120624 967.283344 913.390923 124 132 144
-780.159664 907.800198 887.325191 197 217 216
208.231306 323.471785 1497.573090 136 145 154
252.675033 -279.061198 1263.360977 82 87 88
272.404385 457.420635 1665.735817 26 29 33
259.635997 499.599266 1693.194008 151 165 170
89.401424 -360.764647 1172.209549 33 48 67
106.191003 -370.292997 1182.804680 33 48 67
361.456227 -208.188057 1393.974495 109 113 108
279.560351 480.025196 1725.794983 110 126 109
279.560351 480.025196 1725.794983 110 126 109
322.280455 472.649193 1749.442673 71 91 91
418.107462 434.215927 1824.601936 47 58 64
240.833306 447.331667 1757.826233 12 18 7
250.706553 446.069717 1763.715553 78 89 69
265.915227 421.514702 1802.795792 34 43 27
233.797169 418.566561 1795.608902 33 42 22
244.653797 416.445398 1800.204659 86 96 79
213.623095 415.685225 1794.013405 74 82 62
176.370263 406.937170 1796.108246 157 165 165
369.199014 381.550026 1874.797058 27 32 26
222.113395 393.866539 1825.104904 60 69 50
411.233616 371.969700 1895.313835 25 31 20
235.725904 388.747072 1834.389687 58 68 51
363.268185 373.148751 1888.230324 28 27 16
263.201046 378.236270 1854.107857 52 61 42
258.171129 376.926827 1858.501053 180 192 197
283.635712 372.209668 1872.677612 46 55 37
272.907305 371.624732 1870.836067 182 191 194
281.092715 367.910552 1878.847122 185 194 198
167.157769 368.148661 1846.199417 122 161 170
315.364838 355.330801 1903.377342 176 187 189
333.921599 353.494263 1911.216736 48 55 37
322.749019 354.390979 1910.341644 178 190 191
353.750920 342.483258 1926.181412 48 57 44
384.072590 330.747581 1947.033119 52 60 43
-419.215202 861.081696 1954.043007 144 149 148
-175.025129 577.291822 1916.990662 144 149 148
42.852965 323.805380 1883.626175 144 149 148
497.320175 290.604877 2028.232384 78 91 90
260.733581 -523.991394 1470.863533 99 108 122
-656.841087 -175.975490 1714.105034 102 120 137
-671.917677 194.364703 2011.988258 111 132 149
-496.484089 -236.925054 1821.177673 175 187 198
-535.088205 138.185489 2110.062408 58 77 92
-496.980524 122.168231 2128.704262 60 77 90
-462.523699 -252.928472 1846.231842 180 197 209
-461.419392 116.079855 2146.427727 139 154 163
-440.221214 -255.745029 1860.928154 172 190 202
-434.774303 -258.215070 1870.226479 179 195 211
-411.721659 -259.099793 1877.269936 105 120 136
-430.187035 104.710042 2167.423630 136 150 160
-341.464543 71.745384 2225.220108 147 161 171
-329.490280 66.506666 2231.823540 127 143 154
-68.151391 57.170302 2263.510704 98 139 161
-317.538953 53.692311 2233.992767 63 72 85
